ply
format ascii 1.0
comment Written with hapPLY (https://github.com/nmwsharp/happly)
element vertex 114
property double x
property double y
property double z
property uchar red
property uchar green
property uchar blue
property float ix
property float iy
property uchar octave
end_header
-0.91240883418093377 0.24868524233514644 1.7038377877293476 221 255 215 178 343 0
-0.30771498851045198 -0.290425582931017 1.0090560722854902 113 138 255 265.200012 177.600006 1
1.2103579540198632 0.59424702754673286 1.6803222576639216 95 94 255 661.200012 423.600006 1
1.420667178434899 -0.0431086363019757 1.5404757389550161 122 255 42 738 277.200012 1
0.16678650241311832 0.66915218902109908 3.3462483523179669 168 163 255 405.600006 364.800018 1
1.2257749061613059 0.48415909337089075 1.6154807491357301 72 84 106 676.800049 404.400024 1
0.70879607174522885 0.58175617100728871 2.9957335261296727 156 179 255 477.600006 363.600006 1
-0.93836296503458527 0.25293018176862925 1.75216021517382 219 221 255 177.600006 343.200012 1
-0.46177549162577236 -0.48092976345737593 0.92098490735993455 185 214 255 189.600006 87.6000061 1
0.57334626306130176 -0.6364990840942204 3.4291563365612099 52 110 138 448.800018 217.200012 1
-0.92162902715042128 0.2180879019004861 1.1689561466256322 210 211 255 81.6000061 357.600006 1
-0.5486823140842283 -2.1465993944003947 4.2023605469103842 41 66 86 332.640015 90.7200012 2
1.4597814431615901 -0.047629597762595094 1.6020488140006552 255 71 120 735.840027 277.920013 2
1.3529589802587527 -0.11054265599547192 1.5781489160320774 192 255 113 714.240051 260.640015 2
-0.91730176332412228 0.24797645392348977 1.7068723171350477 216 219 255 177.12001 344.160004 2
0.38605593152305384 0.33877754432489415 3.6123057815332533 122 142 163 424.800018 321.120026 2
-0.27376764367208573 -0.14675254412426858 0.87951560353088265 109 129 155 264.960022 224.640015 2
0.26914423338866489 0.53445840079559792 1.9683438089340122 115 124 137 436.320007 390.240021 2
0.14105424381381759 0.64795751145070735 2.7138454574422415 140 255 105 406.080048 381.888031 3
1.4029982304754296 -0.24698962968560856 1.6289134103714256 255 230 235 715.39209 229.82402 3
0.14713258273976582 0.54185097650474745 3.5504745123336638 161 255 153 402.624023 349.05603 3
1.1499485497535633 -0.43565827335414675 2.2367969420512033 229 235 241 580.608032 214.272018 3
1.1833508076864252 -0.6706674734343816 1.847518891063987 214 222 232 628.992065 150.336014 3
-0.25820766897275815 -0.14026136768433278 0.81861991727143302 109 128 155 264.384033 222.912018 3
-0.4856999679274403 -0.031373066366831237 0.94927360725836296 242 242 245 188.35202 274.752014 3
-0.45959182736143278 -1.834111944044339 3.5478216466044366 69 94 255 333.504028 89.8560104 3
-0.30840071230384369 -0.40302300725405549 0.95315165869874718 49 80 103 260.92804 122.688011 3
-0.5074923227334196 -1.3513375312195599 3.2650467785724961 79 102 255 321.40802 129.600006 3
-0.46140601900206235 -0.4770792854870356 0.91544985007565005 214 255 159 190.080017 88.128006 3
-0.42941171343951412 -0.38101197821716459 0.83930391736589094 196 209 224 188.35202 117.504013 3
1.2003112115535646 0.47240017821343028 1.5725882191705933 255 73 85 675.648071 404.352051 3
-0.94669055812598479 -0.59363102572500281 1.2926187367533197 227 227 255 101.952011 108.864014 3
19.276391643744009 -31.280153513779194 58.682503032621582 170 191 216 508.032043 84.6720047 3
1.0377771248506762 0.54381833635344523 1.9515442043212543 152 255 161 586.828857 393.98407 4
1.4504829143097233 -0.057197214827788945 1.6382033177157984 157 183 255 721.612915 273.71524 4
0.13579593032368065 0.01895046152461799 5.4610285126286655 255 169 182 391.910461 290.304047 4
1.1913909144040904 0.47126832189612355 1.5642424896372518 255 73 85 675.993713 404.352051 4
1.1621263331740193 0.40576613511178539 1.5915538674091358 139 169 255 661.478516 387.763245 4
1.4133560305909099 -0.2462107740628342 1.6560595274199823 255 222 229 715.39209 230.169632 4
0.26916557942538399 0.30920597195832278 3.3291910963498417 152 168 181 412.646454 321.408051 4
-0.91739847028570942 0.42974791357745334 1.0774985729283206 76 82 79 60.134407 439.603271 4
1.1215929577299208 -0.55230809355960642 2.4940503275545689 255 221 230 559.87207 201.139221 4
-0.49477710323331614 -1.8878161186835065 3.7124194816022671 69 94 255 333.84964 89.1648102 4
0.75746023858404521 -0.61365988316806341 3.0360252232865887 237 242 255 481.075256 211.507233 4
0.96703301479977966 -0.32125946161895846 2.5542084828657643 245 255 239 526.694458 238.464035 4
0.756660598230529 -0.305985253834274 2.7633057667406069 255 241 243 487.296082 248.832031 4
-0.28699948187406576 -0.27517522538333533 0.92994572214743743 255 109 130 263.347229 176.256027 4
0.53169759503568836 -0.57169585412793311 3.5238162115121066 255 68 116 443.750458 226.02243 4
-0.52765498813737644 -1.3870544654381924 3.3742672321929943 79 102 255 321.408051 130.636826 4
0.33926730995412302 0.54086743735746567 1.0332314551698456 223 223 220 512.17926 487.296082 4
1.2572773384317952 0.34433465147281173 1.4674494115170846 149 171 255 713.318481 377.395264 4
-0.90141480921140893 0.21519883115620508 1.1307308746093856 194 198 200 80.8704147 360.806458 4
-0.091154230162099337 0.56426339996170449 0.9073287005252122 204 206 208 344.217651 528.768066 4
0.11976706968538053 0.47547283905740773 2.2631242393790734 160 255 156 406.425659 369.100861 4
-1.2739329645548167 0.011859079632408509 2.3810932663331172 245 246 248 176.256027 288.230438 4
-0.17329444457513343 0.42135353015025218 0.9504204618503227 255 38 72 315.187256 458.265656 4
0.56906009267979796 -0.61085052769911585 3.2702214929555664 108 135 255 449.971252 217.728027 4
0.38221770358518659 0.35596730828071255 4.3351330376795705 255 133 153 423.014465 318.505005 5
-0.80982804714530721 0.53030099935360553 1.1430571173619422 255 75 74 111.974419 462.827576 5
1.1946414108198482 0.4704017743033081 1.5632188086152663 95 109 133 676.82312 403.10791 5
1.0501691088089304 -0.44675906593238435 2.2998847464961205 227 234 241 564.848694 213.995544 5
0.47845451589702059 -0.4815990376281124 3.2409362747429187 255 142 164 435.456055 231.413788 5
0.52635319344802056 -0.50533650120592444 3.2637733306981254 146 255 86 442.921021 223.948837 5
1.1514782489164757 -0.61433431255435245 1.7858837879013327 222 232 255 629.545044 151.787537 5
-0.28880966217990034 -0.38589566468610781 0.89509040719443567 79 102 255 261.273651 124.416016 5
-0.51021459133368996 -1.3730272035183231 3.2653502117856466 50 79 102 320.993317 129.392654 5
-0.96507951860445607 0.25740577058050285 1.7965821200673213 215 219 222 176.670746 343.388214 5
0.93213009304969874 -0.53102319692320998 2.6991961657319541 235 241 255 517.570618 211.507233 5
-0.09216699227644698 0.56621589497126734 0.92429793809346572 140 148 255 345.876526 525.035583 5
-0.10576470916433167 0.53061594447171467 0.89544121298350499 13 255 0 338.41156 517.570618 5
-0.28209975688820244 -0.1519431645551842 0.90203281514649181 136 255 102 266.250275 221.46051 5
1.3230766840426731 -0.22111832661108427 1.5068620502776691 228 233 238 716.63623 228.925476 5
-0.11878087205042265 0.03484124739698502 2.458520112263221 119 141 255 365.783081 296.110107 5
-0.50852558386896707 -0.025704776622818892 0.98757469190302816 246 255 245 186.624023 273.71524 5
0.14559748353974733 0.55248399181776819 2.6877976777273442 169 163 255 405.596222 368.271423 5
1.289814366976088 -0.6577263400313933 1.809237248082157 255 198 213 659.902588 149.299225 6
1.1855255636863715 -0.66861083535527188 1.8836922717558799 255 215 223 627.056763 152.285217 6
0.98711031927909865 -0.33650252445900497 2.6104887628393207 242 245 255 525.533264 238.878769 6
0.71488857349183288 -0.30386297875155721 2.5973208472105815 246 255 240 486.715485 244.850739 6
-0.55788309928810698 -1.4052857290029972 3.3844732495534284 255 50 79 319.500336 128.397339 6
-0.47926025694192509 -0.50483589732019152 1.0051668867501946 186 214 255 197.074982 89.5795364 6
27.860141214584694 -28.877821849087347 71.648264209760839 255 201 214 531.505249 137.355286 6
0.73374616316220465 -0.5834315937785266 2.8736465354089331 234 237 243 480.7435 212.004898 6
-0.45478200354880682 0.51067885591643991 0.87303094106950674 108 123 146 188.117035 516.575317 6
-0.16491695357627512 0.043597749263845353 3.0046676609339835 255 98 119 367.276093 298.59845 6
-0.18431585450887122 -0.11723947373179699 0.62838942597864911 121 150 255 265.752625 220.96286 6
-0.25238716067741152 0.46300665674775554 1.0912269150331784 255 33 54 295.612457 453.869659 6
-0.36187905791069408 0.29373118571590545 0.94249943179339546 255 215 216 235.892776 409.079895 6
-0.4174725448774903 -0.051398522292941562 0.97062136816922573 105 132 255 217.976868 265.752625 6
-0.52306122619654438 -0.035295241002903432 1.0013414659785513 245 247 255 185.131042 271.724609 6
1.3436701859860753 -0.28260014627810237 1.571402210514707 255 238 240 707.678345 223.948837 6
0.27108093611841966 0.29404859364596375 3.2637509346603002 191 255 154 418.037842 319.500336 6
-0.96507951860445607 0.25740577058050285 1.7965821200673213 215 219 222 176.173096 343.388214 6
-0.4303966370977852 -0.38029102292529071 0.84445263179860408 255 195 208 191.103012 119.439384 6
1.1445733717733075 -0.65380859751620124 1.7855116867532441 255 215 223 627.056763 154.076813 7
0.96709986931055936 -0.34050995169172305 2.6138580472023873 245 255 239 526.727722 236.48999 7
30.834874948997804 -30.919698673644756 60.571566629959726 155 184 215 576.892212 93.1627197 7
-0.24850419379960664 -0.39241617593497102 0.89937525820937658 255 46 78 275.904999 121.828178 7
-0.31039130245658786 -0.40875111455050928 0.97149779140832182 85 107 255 257.989075 125.411354 7
-0.88806810952678727 0.49671502788423172 1.0707527109642325 33 32 32 68.080452 462.230438 7
-0.13647486244494011 0.038726945457349837 2.6369510071790465 119 141 255 365.484528 297.404083 7
-0.61766215564022797 -1.0551351357125192 4.0116775134199125 159 255 112 322.486359 182.742264 7
0.92135068958542754 -0.52274621905451812 2.6151647253764088 255 229 235 515.978149 211.407715 7
0.79071795362376829 -0.6548434156029207 3.2854207380266747 235 238 243 476.563141 211.407715 7
1.1769469042519043 0.46081352398087333 1.5203389292633096 83 104 255 677.221313 404.899536 7
1.1507525447794051 -0.33850055819786251 1.9809425839393482 154 183 255 605.557678 229.323624 7
-0.28965914459830655 -0.2795247324166466 1.0022427033184353 255 56 76 275.904999 175.575897 7
-0.96507951860445607 0.25740577058050285 1.7965821200673213 255 216 219 175.575897 343.985443 7
-0.35532988166136992 0.28471030311681111 0.90947426208222515 215 215 216 236.48999 408.482697 7
0.13668452820844235 0.030108449565311113 5.194354442662064 191 255 172 390.566803 290.237701 7
0.33152441470303451 0.51769708744585397 0.98072422098818812 255 222 222 515.978149 487.312714 7
1.1083956863777176 0.51411672987539248 2.0051151513142278 163 255 139 594.808167 386.983612 7
-0.21840515043795783 0.25793662304640347 0.86928227453721396 255 42 68 283.07135 397.733154 7
1.1623863782713231 -0.52098672066151475 1.7539923348645257 218 233 255 641.389526 168.409531 7
