ply
format ascii 1.0
comment Written with hapPLY (https://github.com/nmwsharp/happly)
element vertex 136
property double x
property double y
property double z
property uchar red
property uchar green
property uchar blue
property float ix
property float iy
property uchar octave
end_header
1.0427537439677756 -0.070319151106810418 1.4325223462312282 39 86 119 664 271 0
0.46637353909931756 -0.35336500710247232 1.9753367389494221 255 239 242 475 220 0
0.72968272401963508 -0.51217473778478739 2.0494647006041085 227 234 241 520 193 0
0.60228858739826241 -0.54948308930999223 2.4842805965996346 255 233 238 479 202 0
0.83027616290644923 0.63513819887752843 2.0095386671229187 98 112 128 544 409 0
0.98053077384980225 0.33703422117651216 1.4583478664585314 255 123 117 639.600037 375.600006 1
1.1009263930331818 0.045638639401392789 1.3831591434032067 255 91 109 691.200012 301.200012 1
0.74180371938267742 0.1290654898808139 2.4729750322929736 255 244 247 499.200012 307.200012 1
-0.33712102953801981 0.68809650275616985 1.3416283126142039 132 145 160 288 486.000031 1
1.057235341103538 -0.27439060350621325 1.9836783389916031 247 249 255 589.200012 235.200012 1
0.27142903234401117 0.72527998645666991 2.4148165164147501 105 136 255 429.120026 404.640015 2
0.2798279178440557 0.62895274014240465 1.914711236280608 137 255 39 442.080017 414.720032 2
0.59081100886309224 -0.01676558712983045 2.5467623774493866 251 255 249 470.880005 285.120026 2
0.81747838131968376 0.2019179403946223 2.0946744422036412 255 139 156 531.360046 325.440002 2
0.67214062364376104 0.69434259207802596 1.0581058797078624 141 134 255 629.280029 541.440002 2
0.76931876879000738 0.4860946083957407 1.9390989834595036 165 255 149 534.240051 381.600006 2
1.0143971544317272 0.3577907473933174 1.5319006932706429 255 123 117 639.360046 375.840027 2
1.0245181875274376 0.50298803256703029 1.357387011942933 151 180 255 673.920044 432.000031 2
-0.43557743914389579 -1.7616822445854197 3.047637815999626 200 221 255 329.76001 67.6800003 2
1.0522511392957981 0.29493687724628459 1.4554037698972557 136 145 164 660.960022 365.76001 2
0.84926327500056331 0.6497696120819465 2.0630578390117975 94 108 125 544.320007 408.960022 2
0.2395439149275882 0.64219878900597172 1.2989987702811057 13 22 37 456.480011 478.080017 2
0.94251281068499781 0.61330343713323776 1.1111913624119518 255 9 9 711.360046 498.240021 2
1.2086640850514032 -0.39978857693788905 1.4907406742311311 233 236 241 692.640015 185.76001 2
-0.56889482752951448 0.28098658327520365 1.9018859726209296 146 255 148 270.720001 344.160004 2
0.69698025120130613 -0.009876079815575034 2.0434682209539545 249 250 251 512.640015 286.559998 2
0.48144812034053608 -0.36600063087144274 2.0453597086659343 242 245 255 473.76001 218.880005 2
0.64375935673625895 0.65765218062607356 0.99716309209661258 112 118 118 628.992065 540.864075 3
1.1424484473718761 -0.35668291053027112 1.4745446886211226 148 176 201 684.288086 195.264023 3
-0.44674846153468728 -1.2964366196325765 2.5654063223829393 168 196 222 316.22403 95.0400085 3
1.0138830113519615 0.36004543702630065 1.5341108486899673 255 125 127 639.360046 374.976044 3
0.36750401674891964 0.69582318992026693 1.9700982147048922 185 255 150 454.46405 423.360046 3
0.88489505799353108 -0.58262908236326305 2.4305757460196604 255 227 234 527.040039 193.536011 3
0.37593347153178835 0.17898462910866875 3.8327356234364842 255 159 179 419.904053 304.128021 3
0.98195610469464056 0.47722471659846366 1.5912320887410685 183 255 136 618.624084 404.352051 3
0.99103055666504059 0.48912217458711749 1.4226609986612582 255 176 184 651.456055 416.448029 3
0.25950362058952403 0.68949770208845984 1.4090818556934668 38 45 59 456.192047 476.92804 3
0.5842920100533151 0.63065358681311801 2.7539214767998992 225 255 230 466.560059 376.704041 3
-0.3688079436124454 0.59901565550372693 1.1752911695491202 161 255 160 262.656036 483.840057 3
-0.24989161529989534 -0.31954647832526684 1.7231639040293887 244 255 231 326.592041 216.000015 3
-0.32338856876516964 -1.4066867372620158 2.1766232354048558 176 195 218 328.320038 41.4720039 3
1.0396682868015017 -0.21227466262218286 1.4166073330853841 255 99 137 667.008057 231.552017 3
-0.48602492280147125 -1.3355221167440845 2.6669360237149391 255 169 197 315.187256 93.3120117 4
0.19929043296461901 0.6360459992423706 0.99326098859319867 230 255 233 462.412872 534.988892 4
-0.07362457657633259 0.68890757620174758 1.3230908942769384 105 126 147 360.806458 489.369659 4
-0.30383551026171052 -0.56075457726839129 1.6086433938356288 219 234 255 313.113647 155.52002 4
0.51908149588738239 0.73039385437705273 1.6197136591385197 132 153 255 505.958466 462.412872 4
0.80960576671868867 0.61500939545035638 1.9960010065973286 94 107 255 541.209656 408.499268 4
1.1225586426127059 -0.38827252372970822 1.4995038594766923 255 233 236 675.993713 188.697632 4
1.2005456281750921 -0.4357449348546546 1.6794983948998645 236 241 255 661.478516 190.771225 4
-0.099354374139867696 0.47191371633966872 1.9327998365639507 124 140 157 364.953644 381.54245 4
1.1886067300350351 -0.35562861240464982 1.6984346412616427 255 121 158 651.110474 205.286423 4
0.80924473588518153 -0.54000698816980974 2.1992560283337959 227 234 241 524.62085 194.918427 4
0.55121628758980501 -0.44826316088122597 2.4044771389307424 241 243 246 472.780853 217.728027 4
0.54984720747386584 -0.46973849691565728 3.0316040548118526 183 198 211 452.044861 228.096039 4
0.58980132395078488 -0.4144954264902514 2.5794273132354437 243 244 246 472.780853 226.02243 4
-0.39269345785510801 0.2919167615445466 1.7555572936378221 162 178 194 300.672028 350.438446 4
0.94302559872417735 0.53201125807441352 1.2151818510704775 174 255 133 678.067322 454.118469 4
0.23153564059491472 0.64492371323849773 1.3180955459191352 49 255 19 454.118469 476.92807 4
0.38904458498344852 0.62317524263784629 1.5058320839876549 255 164 170 483.148865 445.824066 4
0.27486866830155487 0.66859492067281034 1.1300979631905381 71 73 255 481.075256 516.326477 4
0.99516270397119277 0.61668824669097777 1.9435454830970595 37 48 70 580.608093 410.572845 4
0.69403685032044748 0.57872637502718893 2.2209820733254952 141 160 255 505.958466 387.763245 4
19.536572197974657 -31.638441193723516 59.177503099219436 176 199 222 508.032074 82.9440155 4
-0.3732175788348604 -0.88261648690131755 2.7171187140326287 235 255 207 330.946594 161.740829 5
-0.063575329603593689 0.66732817399355482 1.283976852685254 112 132 155 360.806458 487.710785 5
-0.20694418333954312 0.66606845014156768 1.2630368316788534 179 255 140 318.505005 492.687439 5
0.92007610319307775 0.44648821921804649 1.3089919468301039 255 194 199 651.939941 415.5495 5
0.4863453493241825 0.68331970904063688 1.5274358842241043 255 119 132 507.61734 460.339264 5
-0.3122445911641587 0.64594587137786919 1.2371363297245157 150 255 139 286.15683 487.710785 5
0.27637928906303277 0.6269858443275238 1.9045231887579686 43 111 140 440.432709 413.061188 5
1.05470005404137 -0.38200415010144606 1.6283239223196944 235 255 231 634.521667 201.553955 5
0.93508241806573733 -0.24728216619277221 1.7378031902370594 247 248 255 589.731934 233.902115 5
0.56353587222387569 -0.46919842928002153 2.4967881167681192 240 242 245 472.780853 213.995544 5
1.110611895233184 -0.5075877769567857 1.4949194230063867 235 255 212 666.869873 154.275864 5
-0.17106864846715375 0.083492827354362698 0.221080834364352 175 184 181 84.60289 432.967743 5
0.95943298930140097 0.6437708726330994 1.0992278249762721 4 1 16 716.63623 510.105682 5
0.96485984203626551 0.62542583281951414 1.140858923657448 18 255 4 714.147949 497.664062 5
0.392326194095314 0.63382221766500613 1.549472360369248 182 255 168 482.734161 442.921021 5
0.97831621514485001 0.46830030725302108 1.4538122095806667 227 227 255 641.986633 410.572845 5
1.0804387888294507 0.29915895049629881 1.5126364856680707 255 141 152 659.404907 363.294769 5
0.44087019053915122 0.40003968144500512 2.7747736231096081 150 255 41 442.921021 338.41156 5
0.19280575071560069 0.085522181118946827 4.8337116664365993 186 255 151 398.131256 293.621796 5
1.0230569110878402 0.59809673055378842 1.5638353271103709 112 126 151 636.014709 435.953735 6
0.16466169422994881 0.66625118890929613 1.4775327800180467 135 144 255 429.981781 462.827606 6
0.46657853530716809 0.65599076653627808 1.4546676962721463 118 132 153 504.631378 462.827606 6
0.37430670473453453 0.61596786969082307 1.4968722055093941 164 171 183 480.7435 444.911713 6
0.14057399602879572 0.62835139999312117 1.110728442024584 140 141 136 432.967773 504.631378 6
1.0112206715077263 -0.37734081732374314 1.5113242115222647 231 239 255 641.986694 197.074982 6
0.24278715904977699 0.65272068900513647 1.3304058472938651 61 76 255 453.869659 474.771545 6
0.21594068454265791 0.68650119941355303 1.8224552137418462 159 178 255 429.981781 432.967773 6
-0.28881392507430492 0.64814022050373321 2.9029597577752888 226 255 229 346.374207 373.248077 6
0.57808497391711833 0.62720812060824516 2.7364409018591518 227 255 229 462.827606 373.248077 6
0.79138128167582722 0.59675132282558896 1.9211318232148775 90 101 115 540.463196 406.093903 6
0.73622249875183732 0.60759976582924313 2.0283496145258528 168 255 141 522.547302 403.10791 6
-0.30396204467301624 0.61105702049802346 1.1545856931732246 255 133 141 283.668549 489.701477 6
-0.48564904945060228 -1.3390387281169349 2.6316099342917214 169 196 221 316.514374 92.5655212 6
0.82138233237198155 -0.24769571891601938 2.0417030407178629 248 255 242 534.491211 244.850739 6
1.008566782133389 -0.20768504263682042 1.362085521071144 139 170 255 665.874573 229.920807 6
1.0145965351243551 0.38989422958654663 1.7823063704824786 255 99 113 603.168884 373.248077 6
0.70687995886957755 0.62913774705456227 1.0703767694303234 32 56 255 633.028748 513.589355 6
1.1280477311805628 -0.48691954544736882 1.5443944492010724 236 255 211 662.88855 167.215134 6
0.99746032537001827 -0.36157768707002946 1.5237656634379855 234 241 255 633.028748 203.046951 6
0.95417290345087924 -0.451739551693354 1.8227345177160119 240 255 221 582.266968 191.103012 6
-0.43711148771652297 -0.77018381185269535 2.3513246095437799 234 255 203 310.542389 155.271194 6
0.7998518677587354 -0.53844079185955751 2.2098184949198609 234 241 255 525.533264 194.088989 6
0.1769432491864209 0.50113707488761294 1.5570006031369106 114 146 255 429.981781 406.093903 6
0.50536782505359601 0.63335413382458094 1.9691444444279114 180 255 142 486.715485 412.065857 6
-0.083050065768185188 0.6908683354828653 1.3424697852369194 255 61 75 355.332153 486.715485 6
1.1003600939837335 -0.34701691905723797 1.5891480843486656 191 255 117 650.944641 203.046951 6
0.21152943569330529 0.099496760052570465 4.3845655396543659 163 184 255 397.135956 295.612457 6
1.0217217795383853 0.56655438757560961 1.2706975067767319 138 162 255 689.762451 459.841614 6
0.69013685582844042 0.58955739123611428 2.4309351853997949 127 140 154 492.687439 382.206024 6
16.799769646805412 -26.966324275158399 48.123388104335056 163 191 219 516.575317 74.6496124 6
1.0289733334434503 0.37797907600722569 1.3890871500569695 183 255 138 666.471802 394.149963 7
-0.30640003425078355 0.65429694005153727 1.3229744686697895 171 196 255 293.820892 469.39679 7
0.5751124928798137 1.0062770791900864 2.9110810115434642 174 255 140 458.647247 426.398621 7
0.39882098903660945 0.63738292072428093 1.933202786151373 191 255 160 462.230438 412.065887 7
-0.50894833234857106 -1.3489893719110093 2.6621954778936479 255 169 197 315.319977 93.1627197 7
0.82774463485507699 -0.26179807579654302 2.068131720058008 245 248 255 533.894043 243.656357 7
1.030670865165477 -0.49543367546858996 2.0103681712857018 221 231 240 580.475403 189.90863 7
0.58192919080252348 -0.47219485539292072 2.5729251703754148 243 245 255 469.39679 214.990891 7
0.86953192341137875 -0.57200788999228447 2.3416446439748082 255 228 235 523.144531 197.074982 7
0.97897125111475769 0.59142200458843419 1.6364764312168356 42 55 255 609.140869 426.398621 7
1.0639549263882426 0.27612786469861128 1.5051455863725183 255 156 166 655.722229 361.901337 7
1.1393100395752205 0.53386973769457613 1.8563557460338371 255 136 154 619.890442 401.316345 7
-0.046038801848677924 0.1044496705806377 1.546339450049584 122 159 181 376.23407 315.319977 7
0.47990454070757793 0.60168727885199114 1.4362445946306828 131 146 161 508.811798 444.314514 7
0.79726016343437034 0.61080155323263008 1.9873113924196488 115 130 255 537.477234 408.482697 7
0.83397469627629772 0.4095311009116509 2.0267510909939759 108 122 255 541.060425 369.067719 7
0.85405000827790345 0.48990205208707893 2.8743384447744802 175 255 146 498.062256 351.151794 7
1.2208615415799664 -0.40342476512867997 1.5605321373222596 231 235 240 684.387695 189.90863 7
1.0519173707981746 -0.33458805801348734 1.4786552403761721 147 173 199 652.139038 200.658173 7
-0.32505061635228394 0.64988273413537634 1.2595886819207127 255 134 141 283.07135 490.895874 7
0.09532372052429583 0.58427848058884368 1.2092366158741319 255 95 99 415.649078 469.39679 7
0.54901446650003227 -0.45625791868348964 2.8640485293857356 255 201 212 455.064056 225.740448 7
