ply
format ascii 1.0
comment Written with hapPLY (https://github.com/nmwsharp/happly)
element vertex 71
property double x
property double y
property double z
property uchar red
property uchar green
property uchar blue
property float ix
property float iy
property uchar octave
end_header
0.52387475239927017 -0.15417881744570849 1.1702970492629863 243 245 248 556 238 0
-0.28897273840686166 0.60857633527850741 1.0301261008868074 140 164 255 277 514 0
0.49429959106421673 0.67994622401391336 2.087188466454247 255 190 194 475 412 0
0.54716152110509153 -0.35600716271428123 0.98102767189020668 229 237 255 597.600037 148.800003 1
0.49672729845963048 0.036871237589283401 1.1529182963282176 248 251 255 549.600037 300 1
0.42472326188011822 0.71913420511836956 1.4787719552101724 255 194 192 495.360016 476.640015 2
0.58303598471542251 0.60434365549183933 0.90167882838365276 228 227 255 633.600037 547.200012 2
0.53742886153754288 -0.14657753882866587 0.99913418310765945 255 247 247 591.840027 233.280014 2
-0.40340102131860833 0.88498884983377257 4.1890374694530941 182 202 255 345.600006 367.200012 2
0.055838607644061788 0.71362217448723664 1.8901682075096229 67 255 61 394.560028 436.320007 2
0.31306131833066519 0.23029298259283626 1.6661122890427817 244 246 250 456.480011 338.400024 2
0.47092441922146278 0.097019555778672328 1.0769281646732667 179 255 143 550.080017 322.559998 2
0.51239535903314981 0.58312276773124228 1.9302183512671549 255 202 203 483.840027 406.080017 2
0.58581640683356206 -0.055829994454126675 0.8351137696102775 249 250 255 653.184082 262.656036 3
-0.31710463694721014 0.6704916379105843 1.2043269781499362 225 222 255 285.120026 502.848053 3
-0.33717241878817372 0.69458400643401774 2.5245343298277936 156 184 255 333.504028 393.984039 3
0.58023346217339578 0.30243876931539138 0.82658099279166297 138 155 255 653.184082 428.544037 3
0.48264499896975188 0.67866320418854498 1.2335463362376657 188 197 255 533.952026 495.936035 3
0.56321324748358648 0.16548555621915287 0.8740725731002783 180 255 227 630.720032 359.424042 3
0.03453248746340587 0.22366432124432362 2.0302114602774983 245 249 252 392.256042 330.048035 3
0.60759974144667961 -0.36994015035203187 1.1049291410246669 255 234 236 599.270508 159.667221 4
0.5976233610977153 0.54356853095035962 0.88834215279794648 229 230 229 644.889709 526.694458 4
0.5309190145876328 0.73767053075283329 1.3716389085713665 172 179 193 532.915283 497.664062 4
0.37474374617783046 0.71123653162650435 1.3875686440690114 163 156 255 485.222473 485.222473 4
0.56681692292887265 0.027055075455681199 0.80796036454084774 248 251 255 653.184082 300.672028 4
0.57026642338128331 0.16033677372278884 0.88005498849229724 235 218 223 632.448059 356.659241 4
0.11083236534473917 0.14580049653266355 2.5707012740052946 245 249 252 400.204865 311.040039 4
0.56137536347900752 0.33382247622409467 0.80249893189509347 255 149 161 651.939941 447.897675 5
0.57687812189158127 0.30384811215421048 0.82671350214660055 255 138 147 651.939941 427.991089 5
0.55870826811203478 0.47243370547683949 0.8080553601644942 228 255 225 646.963318 507.61734 5
0.35141584755302624 0.26947976950710451 2.0173587043664636 255 244 246 455.36261 338.41156 5
0.17261798347442903 0.19011656213358635 3.0319088179339122 255 245 249 403.10791 311.040039 5
0.50907699543461282 0.72585476062138843 1.3453738948369871 177 183 194 532.500549 495.175751 5
-0.3336232040302356 0.74807513128634584 1.4880769979648951 128 156 255 293.621796 480.245819 5
0.58128792140150676 0.11872800987911022 0.90223353926126482 250 255 244 634.521667 338.41156 5
0.33709732886043042 0.33294487970034431 1.9324772336133913 242 255 240 450.385986 355.829803 5
0.52555499602920275 0.037904948245213732 1.1894968274134134 248 251 255 549.918823 298.59845 5
-0.088474348706798267 0.49486587654074549 2.9710826128690666 192 255 69 370.262085 349.360199 6
0.61497715896334149 -0.45209378892099206 0.8869669204826085 255 172 198 647.958679 89.5795364 6
0.55167629569541465 -0.22972199382007386 0.92085280859498297 235 238 243 612.126831 191.103012 6
0.56008775697065194 0.33160091899670024 0.80471999188200893 178 255 147 650.944641 447.897675 6
-0.30918761771705938 -0.17721497964514443 0.99948639444184728 173 193 255 265.752625 220.96286 6
-0.25120538322016417 -0.13701186204969779 0.72557200421525803 80 91 105 244.850739 217.976868 6
0.57156842588336509 0.13610862904983284 0.82005931890942119 246 255 241 650.944641 352.346191 6
0.369916879498704 0.2763191284044611 2.1171971750201566 242 247 255 453.869659 340.402252 6
0.11833650954703456 0.16753191878034357 2.6734070650669386 245 249 252 400.121918 313.528381 6
0.45474537448623442 0.71520124290909615 1.2240544112743619 157 164 177 528.519287 510.603363 6
0.45681418861497969 0.64131482729542832 1.1608108019076449 255 172 179 531.505249 495.673431 6
0.41394558762223155 0.68653783901029508 1.447186157962137 166 166 160 492.687439 471.785553 6
-0.30661556278035507 0.69104205565991417 1.3446424928298146 113 134 158 292.626495 483.729492 6
-0.19935348762714167 0.7090752143810074 1.9310320216134489 255 150 165 343.388214 426.995789 6
-0.23148052377627959 0.59788986069108341 1.6552514239620084 179 255 66 334.430267 421.023834 6
0.08490461214278433 0.63829245456668637 1.3703954993048253 93 96 98 412.065857 465.813599 6
-0.35292525165809163 0.74573310963848938 2.7543744185379264 185 255 96 334.430267 394.149963 6
0.49018213181290782 0.025932457437817691 1.1565241304383811 251 255 246 546.435181 298.59845 6
0.59328714993250409 0.7048142599129299 1.8675760813455788 165 179 193 508.811798 429.981781 7
0.53635954060741775 -0.34641817168956601 1.2598583433682817 233 236 242 548.226807 182.742264 7
0.079981374270137406 0.44306093562762328 2.0812574772302392 180 175 255 397.733154 361.901337 7
0.54744155859025212 -0.041442833981048866 0.88876259088167586 255 249 250 619.890442 268.738617 7
-0.18977955110983658 0.64042812878691313 1.0980507517149114 167 255 127 318.903168 505.228607 7
0.00461385955096838 0.65527483153533173 1.1456804278146642 255 106 103 383.400421 505.228607 7
0.5476274863814341 0.031507734533562926 0.8822650939914265 255 246 248 619.890442 300.987244 7
0.5773612542389035 0.11770498957384748 0.89376451082594244 241 246 255 637.806335 340.402252 7
-0.20669249632719211 0.72177185367959218 2.0054614508374016 139 156 176 340.402252 429.981781 7
-0.31230769522111412 0.64035447992189776 1.141068802683745 255 217 216 283.07135 505.228607 7
-0.32857287274224589 0.75087849611997681 1.4826750133593372 139 162 255 293.820892 483.729523 7
-0.27307571470030201 0.67766202004944032 2.6686376794316722 114 165 191 340.402252 390.566803 7
-0.12692902785127647 0.58652984806642039 2.8006574880719963 153 163 255 365.484528 369.067719 7
0.50833230847458055 0.64104635650973996 1.3861045820022886 255 188 189 523.144531 465.813599 7
0.42672939156896739 0.74343645565501038 1.5630798386086351 161 255 166 490.895874 472.97998 7
0.097005144441046021 0.75729625841324988 1.7479791179628394 52 59 66 408.482697 458.647247 7
