ply
format ascii 1.0
comment Written with hapPLY (https://github.com/nmwsharp/happly)
element vertex 194
property double x
property double y
property double z
property uchar red
property uchar green
property uchar blue
property float ix
property float iy
property uchar octave
end_header
0.34953027583847651 -0.11608224536077483 0.4292375493947308 209 218 255 697 184 0
0.4606476260082914 -0.10279594209015627 1.5000028708210056 16 255 0 502 262 0
0.16803520579581435 0.45984765632337837 1.5006384890048361 255 210 211 427 406 0
0.38643237452067475 -0.089280680098906676 0.42927309102526728 223 255 209 730 208 0
-0.16738917723042868 0.20353146002415681 0.60083328755780696 83 102 255 277 418 0
-0.19523387602574993 0.19859855277347327 0.60003913836634382 255 82 93 259 415 0
-0.43777898193540488 0.40755018064487875 0.69259735490696084 151 255 141 142 514 0
0.59638636577217241 -0.076261006794796637 1.0005915301088313 233 236 255 613 259 0
0.37702987155282447 0.22592680851854383 0.41807537044545345 188 255 190 730 495 0
-0.65412504635631408 0.03162018290480445 0.74982343009219177 61 81 255 49 304 0
0.42889104478656775 0.40234501399028644 2.9945691886628052 255 88 101 439 340 0
0.38644712647855567 -0.072516020732224268 0.42929918028259029 227 255 217 730 223 0
0.38340524493782574 0.023067809795110795 0.42549497616868859 67 255 50 730 308 0
0.5889211673875685 0.33806814824252779 1.0012732202091901 186 255 187 610 418 0
0.58890027609287221 0.30809908815427034 1.0012320170971314 178 255 178 610 406 0
-0.01625607280244501 -0.76705170378135168 2.9938478756556277 194 255 161 382 189 0
-0.66442545703346023 -0.57068409733903414 1.4990195245773328 193 255 148 214 142 0
0.35701419888997366 -0.014277089666200357 0.50085100077120437 53 255 34 658 277 0
0.34957673171058579 -0.059081597517312096 0.42932307682386056 134 146 255 697 235 0
-0.10100846868325791 0.19493659632124472 0.57724698528245166 255 96 103 319.200012 417.600006 1
-0.11517555861436263 0.33456344201095845 0.49916381471485483 37 71 255 297.600006 546 1
-0.11567009627478766 0.31296722630444196 0.50073265694799085 13 28 255 297.600006 529.200012 1
0.38652118224358717 -0.11720931364183587 0.42159350351990027 255 180 194 735.600037 181.200012 1
-0.44146313864989301 -0.055341469108133715 1.4995070039862815 255 22 65 271.200012 274.800018 1
-0.081416124536021123 0.39071806518358887 0.74704015762343157 178 168 165 340.800018 488.400024 1
-0.14965369594025796 0.2761218315449408 0.57742629676076451 144 255 98 286.800018 471.600006 1
0.34411301309309883 0.25813523149218548 0.48001206551936959 46 64 93 660 496.800018 1
0.50672409929127649 -0.06416577264067648 0.8934651147781566 233 236 255 601.200012 261.600006 1
0.35886081689613414 -0.12005519827532338 0.44212140460738758 209 218 255 697.200012 183.600006 1
0.33961601346086928 0.13489057299295276 0.41684565110802213 70 78 83 696 412.800018 1
0.34038078349945189 0.1123979647508721 0.41788293705234297 107 114 121 696 391.200012 1
0.35829071489662845 0.13624672202706153 0.50125362421025144 163 255 154 658.800049 393.600006 1
0.33897823747413325 0.17792711720878598 0.47174696326047594 187 186 255 657.600037 432.000031 1
0.3588993563473285 -0.060650212762350886 0.442197102187393 156 162 173 696 235.200012 1
0.34473136045975533 0.071913917285980455 0.39591819140391243 73 91 255 717.600037 357.600006 1
0.37675867927137108 0.37669088277488155 0.77692707317650056 101 255 50 570 472.800018 1
0.4553953876659052 0.33593852131852642 0.77699680227483325 60 76 103 608.400024 456.000031 1
0.38487118520021008 0.23245169950167394 0.41809199504121364 177 255 199 738 501.600006 1
-0.082074418344739608 0.21327887031681292 0.75032571387828506 255 116 116 339.600006 396.000031 1
0.33732732376952945 0.10415801961635263 0.46989481744720901 69 255 42 658.800049 373.200012 1
0.3748793747740467 -0.0099837881396083183 0.41628887723668545 62 78 255 729.600037 279.600006 1
0.34592249086121868 -0.0084524039053163295 0.39582477687725132 72 87 255 717.600037 279.600006 1
0.37501240944191333 -0.024037996775449301 0.41644507848897294 64 80 255 729.600037 266.400024 1
0.34030353868297103 -0.0050405877603174054 0.41773206108963296 60 78 255 697.200012 282 1
-0.42883385715760292 0.47101056411523079 0.76586357434654129 255 148 151 171.600006 524.400024 1
0.20603927582502934 0.48469872885983023 0.83510893949049325 180 177 255 481.200012 511.200012 1
0.37623656717671089 0.13623954572441652 0.41706354664731499 59 73 255 729.600037 412.800018 1
0.28516902804196997 0.36605140461879176 1.5006052882549279 128 139 255 457.200012 380.400024 1
0.039079970995365858 0.36616391016551608 1.5004330327299931 141 153 255 393.600006 381.600006 1
-0.42880295526427809 0.45662562186676231 0.76578009096676869 255 143 146 171.360001 518.400024 2
-0.31398322639830217 0.35857952474599641 0.65144483255585217 160 255 156 198.720001 499.680023 2
0.33997725337194801 -0.10316427330494163 0.41760480445294557 255 199 206 695.52002 192.960007 2
0.37278994332340293 0.37634888058474464 0.97355394689974684 255 191 193 531.360046 437.76001 2
0.18066775664420484 0.41168711831695071 0.70911100935861315 178 179 176 480.960022 511.200012 2
-0.30149092222479917 0.39874144607756201 0.62563641302879891 121 255 116 198.720001 534.240051 2
0.50352625765300441 0.076550375676687599 0.89376285499856989 255 56 57 599.040039 321.120026 2
0.39089718642545107 0.1573779400535453 0.4353791357522947 34 46 66 728.640015 429.120026 2
0.38371532996193236 -0.14510689517980277 1.0413457502573191 137 255 111 522.720032 234.720016 2
-0.24330248581540914 0.23876676202715857 0.62089244568657831 255 157 158 231.840012 436.320007 2
0.36848314762766782 -0.15076208829200277 0.47437830756478599 197 209 255 681.120056 165.600006 2
0.37171742963917598 -0.15377870420712922 0.56552782938381896 255 177 192 635.040039 184.320007 2
0.3619560988751091 -0.085966459683522373 0.41768623368343533 215 223 255 717.120056 208.800003 2
0.36200127134669968 -0.0092308367605729233 0.41777799237383151 72 87 255 717.120056 279.360016 2
0.37015243658109859 -0.015619851794027008 0.52186828489184656 50 255 30 658.080017 276.480011 2
0.33888171485604618 -0.056759762507370068 0.41612288535406572 255 195 200 695.52002 234.720016 2
-0.028630785477541151 0.40118173796581497 0.83452066225641375 37 49 65 368.640015 472.320007 2
-0.2597306666770437 0.38312372696782093 0.62567135620973868 125 128 131 224.640015 519.840027 2
-0.10698043301416824 0.27291031961873774 0.46935783974880413 55 59 73 296.640015 511.200012 2
0.37623670398034204 0.21000571987781297 0.41805540400232466 56 69 93 728.640015 480.960022 2
0.34547558919107019 0.20781715345587298 0.48211342072167962 255 66 81 659.52002 453.600006 2
0.37626741199858271 0.26951016986975118 0.41812136511233999 188 255 193 730.080017 537.119995 2
0.37020691284107321 0.30861335237155108 0.52204032297871938 255 197 197 659.52002 515.52002 2
0.35281611700851689 0.030206770047930459 0.51912632079969423 255 60 72 643.680054 312.480011 2
0.37613713508438262 0.022082107314656631 0.41784408745225887 63 255 46 730.080017 306.720001 2
0.36104354278008233 0.10917047052511533 0.44766929370957342 255 49 62 695.52002 381.600006 2
0.37157050156779725 0.019845589730335223 0.97023681144565721 39 54 73 528.480042 295.200012 2
0.35152897188012172 -0.10684132696982714 0.43497733928050997 217 255 197 694.656067 193.536011 3
-0.21302039457183164 0.30005515381915004 0.56537605085151343 57 70 89 236.736023 490.752045 3
0.36605797764059372 0.076627140443122285 0.54368500755480298 86 255 64 642.81604 340.416046 3
0.44082218377934812 0.21979543287261732 0.86924838963542872 34 34 255 577.152039 385.344025 3
0.49136254638260823 -0.061708939473606603 0.86869407957720768 255 231 233 599.616028 260.92804 3
0.41429634185073649 -0.12114133364223877 0.98989574501425559 112 125 136 544.320068 241.920029 3
0.34373277705381977 0.29091764533805531 0.48223448246060852 199 199 196 660.096069 521.856079 3
-0.25830183547089225 0.25009420898442758 0.65108369993213255 255 134 136 231.552017 438.912048 3
0.36206785694855065 -0.14861770385093362 0.47436271557487303 187 196 209 680.832092 165.888016 3
0.35156024273701636 -0.059869777192544174 0.43503814363860721 200 255 214 694.656067 235.008026 3
0.49096444973384401 -0.2049565684701527 0.57494088757345674 175 199 255 713.664062 153.792007 3
-0.17073763753746882 0.28136054847780451 0.57439954360187118 79 101 255 269.568024 475.200043 3
-0.14571973101935629 0.27617210062325381 0.6214830993941578 255 184 185 295.488037 457.920044 3
-0.42600467870579911 0.46786374088336535 0.76205506273394163 255 145 147 171.072021 520.128052 3
-0.41732549831359678 0.39380339385380514 0.74160079906624088 255 155 158 171.072021 490.752045 3
-0.40375462584770605 0.38013251197174591 0.64568626262432716 149 150 255 141.696014 513.216064 3
0.34999090707570196 0.19058788617332725 0.4329780190069934 93 255 51 694.656067 456.192047 3
0.37038774487727266 0.28022816414024432 0.52231433669525185 96 255 45 658.368042 494.208038 3
0.18032259308169801 0.44350366888568715 0.74570221439035433 172 173 172 476.92804 516.672058 3
0.18701800117551182 0.43343362121177031 0.74567483108118171 171 171 169 480.384033 509.76004 3
0.44068043852886912 0.094675022520322047 0.8689567591156615 52 69 255 577.152039 330.048035 3
0.35131669816816663 0.029946457064077198 0.51794592718364207 88 255 66 642.81604 311.040039 3
0.35163810862576311 0.057561628693449787 0.43519023229540443 38 50 67 696.384094 340.416046 3
0.39082582391897924 0.020354020290490219 0.4352265134481057 59 73 255 729.216064 305.856018 3
0.35162266639929451 0.034075080622061528 0.43515987382963256 54 255 19 694.656067 317.952026 3
0.44088949667991539 0.27845978509961306 0.86938732631243421 43 43 255 577.152039 411.264038 3
0.34091548725661758 0.15451558310567046 0.47474565630218385 103 255 108 658.368042 411.264038 3
0.34087783242911973 0.10541591415016779 0.47467384839918836 69 255 42 658.368042 373.248047 3
0.028176467883099333 0.26382938421871238 1.0854106271342343 160 165 170 392.256042 380.160034 3
-0.17134599979296883 0.21146179972438814 0.6201972435382076 255 70 82 279.936035 418.867249 4
-0.20811939252608735 0.21814565316416221 0.62011205290908156 82 98 255 257.126434 423.014465 4
0.38266458266881226 -0.1292448238145886 0.83196339285860987 35 43 255 557.798462 230.169632 4
-0.081812793437822801 0.23182194688669686 0.74659695790395308 157 159 158 340.070435 408.499268 4
-0.36384158447547876 0.28151440248299558 0.9296634000107693 143 151 155 232.243225 404.352051 4
-0.37543785460489326 0.25810767157097608 0.86755940266039566 255 149 158 215.654434 402.278442 4
-0.34550674302508472 0.34885527398616234 0.89748663330483813 139 141 140 232.243225 437.529663 4
-0.24111984152834204 0.23667825716758328 0.6117321757463432 145 255 152 230.169632 437.529663 4
0.3517784340692176 0.26894708304048076 0.43546376498908634 198 255 202 694.656128 524.62085 4
0.40468043466706533 -0.16065355715865373 0.62079308889347318 177 192 211 636.595276 184.55043 4
0.50985934393796739 0.20454145315982755 0.85143597133040416 255 128 133 611.712097 381.54245 4
-0.033658783886148499 0.4178179283990634 0.86928276668414595 50 66 255 369.100861 472.780853 4
0.3516397733290178 0.061475919815352581 0.43519388615146176 50 255 16 694.656128 342.144043 4
0.35160766367698909 0.012154423467994419 0.43513085195215256 52 255 22 694.656128 298.59845 4
0.32673549703152133 0.033830908237190538 0.45189884334005131 42 56 255 657.331299 319.334442 4
0.46789146157484329 -0.063392726027895585 0.77392904590707579 255 231 232 611.712097 257.126434 4
0.46319943408977154 -0.056216114469161645 0.86865063007534227 233 234 236 588.902466 263.347229 4
0.40475863326526579 -0.073497138845705356 0.62094128026207485 231 255 221 634.521667 242.611237 4
0.34937412303783744 0.1906541396313004 0.43535725949243154 93 255 51 694.656128 456.192078 4
0.34639733267163675 0.20910764363066411 0.48360032603445346 255 70 84 659.404907 454.118469 4
-0.26137141057675672 0.36242156808661019 0.59961226362088049 255 84 92 215.654434 516.326477 4
-0.012290759609548244 0.41455276881553144 0.65156305424990879 46 69 255 373.248047 532.915283 4
-0.10533195696974643 0.25940114361073868 0.46831192647245218 86 92 101 296.524841 501.811279 4
-0.15481934609001521 0.23938755806492951 0.48074924161352228 255 70 84 259.200043 479.001678 4
-0.23939165397882561 0.23163193444369756 0.60285762680607147 255 159 160 231.413788 435.456055 5
-0.063139009554557826 0.19697168481016597 0.87552025684624857 255 111 126 355.829803 375.736359 5
-0.30525637639360093 0.22062464278444621 0.86758596815650169 255 137 151 243.855392 385.689667 5
-0.36474302134431053 0.24734269437778764 0.90365513328977687 156 255 135 226.437149 393.154602 5
0.35177696215971521 0.26816334461573049 0.43546153099486418 192 255 196 694.241394 520.05896 5
0.36199773798226648 0.21701195035229925 0.44815301467347152 107 255 66 694.241394 475.269196 5
0.32765171228534806 0.24473001159080998 0.45337531877912213 66 95 255 661.893188 495.175751 5
0.50686531507083088 -0.21127137114211841 0.78338014128710043 192 211 255 637.01001 184.135712 5
0.18312312416923229 0.42272650881009427 0.72497598497537086 173 255 175 482.734161 510.105682 5
-0.26687099408347054 -0.34642171952442469 0.87266837416092657 150 186 255 261.273651 136.85762 5
-0.40913465064089388 0.43731734379608861 0.7239195732684941 153 155 255 169.20578 520.05896 5
-0.28627760404580987 0.33326377917437489 0.60318238612993547 255 152 156 199.065628 500.152405 5
-0.40663504241195747 0.35982392946855635 0.72348922334437749 54 70 255 169.20578 477.757507 5
0.37512097184599097 -0.008999028291283637 0.43515644558478739 59 73 89 716.63623 278.691895 5
0.3657163762580049 -0.06076820485754085 0.45313970602890286 199 255 213 694.241394 236.390427 5
0.35412187390665761 -0.056094688638569284 0.51763979559490059 223 227 232 644.474976 246.343719 5
0.48442684832004845 -0.063478386961079464 0.90476694506725197 233 236 255 589.731934 261.273651 5
-0.020222751493228039 0.44698283449664378 0.72480869753441823 66 88 255 373.248047 525.035583 5
-0.035397854307623558 0.39055648109292951 0.7749826663110132 145 139 255 365.783081 480.245819 5
0.32495547513632178 0.17272150465847724 0.39917167841129808 100 255 60 694.241394 452.874298 5
0.36657915474334463 0.22094097109383076 0.51107592437910765 74 103 255 661.893188 455.36261 5
0.37028159887643847 0.15634053903213549 0.4319014947957352 41 53 73 716.63623 427.991089 5
0.33613464234810392 0.16720142243852101 0.49204081919567366 186 186 184 644.474976 418.037811 5
0.36570275723332807 -0.081317483887360251 0.4531132001192929 226 255 212 694.241394 216.483871 5
0.31828116962200609 -0.10788469457336843 0.44775323800108102 218 255 198 654.428223 194.088989 5
-0.33266783318935217 0.31035975429012552 0.72070346769257354 255 155 155 211.507233 452.874298 5
-0.47904005435953234 0.34801790635358409 0.72318046611746711 152 255 155 126.904335 472.780853 5
0.36136294238706795 0.064819980969499702 0.50349993252390257 22 38 255 661.893188 335.923248 5
0.37023565802562536 0.079164023818548535 0.43180868991427146 61 74 93 716.63623 358.318115 5
-0.28481042704459913 0.38687086650282426 0.64518458643573706 38 53 82 216.483871 512.593994 5
0.12450230992194433 0.28429995942638142 1.0631339534799285 65 84 255 425.502777 390.66629 5
-0.2897471056338316 0.20831816260659872 0.87495700537721721 255 150 157 251.320358 378.224701 5
0.36187671001216187 0.27389543507817016 0.50384568942785768 255 53 71 659.902588 498.659424 6
0.34184398196068011 0.15091825627775499 0.50359508689647603 201 197 255 641.986694 403.10791 6
-0.28862086999584657 0.33561002112083094 0.60318841627569986 146 150 151 200.060959 501.645416 6
-0.46610628127035458 0.43687998561918578 0.75388673640767223 152 255 151 146.313248 510.603363 6
-0.33533967719099883 0.30270776884941419 0.60288640446205166 255 121 124 167.215134 480.7435 6
-0.1124698809641522 0.38321580690669477 0.94071479193627283 88 101 122 340.402252 444.911713 6
0.34186008074992114 0.1704857456941587 0.50362571935780265 185 183 255 641.986694 418.037842 6
0.41543448417953077 0.085681827980048267 0.62911243203185663 77 88 255 641.986694 343.388214 6
-0.034313882531977563 0.39998963862474035 0.72460198486826388 101 102 104 364.290131 498.659424 6
-0.043705330557542249 0.48084463056154048 1.0060930231767922 73 255 43 370.262085 471.785553 6
-0.085569091421882931 0.39018069288260382 0.75459519660123742 135 139 137 340.402252 483.729492 6
0.4032882294397947 -0.12194116743330732 0.50682299357408889 191 202 216 692.748413 197.074982 6
0.37022529552988298 -0.15282925114108953 0.5596030936450973 181 194 212 636.014709 185.131042 6
0.36874573734435417 -0.069658569786554797 0.55916433063908622 223 226 232 636.014709 241.864746 6
-0.23912847015454652 0.23348469043736844 0.59719287562267631 103 111 255 229.920807 441.92572 6
-0.344772374695335 0.30160723132847128 0.837142120870498 159 255 156 226.93483 426.995789 6
0.35210296422841175 0.27037942142364529 0.49045051193543693 255 53 71 659.30542 498.062256 7
0.28336109060672787 0.11943355454213393 0.4107922142460832 192 191 255 641.389526 397.733154 7
-0.10614535632831268 0.25637470416096819 0.46218217121774996 137 139 255 293.820892 501.645416 7
-0.14142359382617331 0.24233135450766452 0.50275364192391858 255 59 72 275.904999 472.97998 7
0.36044156242040065 -0.1096960999537326 0.50323734890982363 218 255 191 662.888611 204.241348 7
0.40934010250974845 -0.16072409338562735 0.62868390252401751 215 255 193 634.223145 189.90863 7
0.41668424733549159 0.030080844913623998 0.68963988653224939 104 111 122 612.72406 308.153625 7
0.37261303614681379 -0.035460732985650785 0.46908724936221791 255 32 41 691.554077 257.989075 7
0.42226248113277348 -0.079703139434617931 0.64954670305911366 231 255 221 634.223145 240.073166 7
-0.055451929229510019 0.47307111620190145 0.89114222667578924 164 152 255 365.484528 494.479065 7
0.33584582989212436 0.1787780733382929 0.41991589602807711 255 57 72 691.554077 451.480896 7
0.32927810303333871 0.1270438128484874 0.41073436265175056 255 152 151 691.554077 408.482697 7
0.40967276303296002 0.21478823155094029 0.62931508286919935 190 187 255 641.389526 419.232239 7
0.37068317324989902 0.014417501235024223 0.46642552474084675 255 16 23 691.554077 300.987244 7
0.37208405016493118 0.034297918519261068 0.55683292331530598 88 103 255 637.806335 308.153625 7
-0.36808025630871299 0.25469434501018062 0.83679177328508569 255 150 157 211.407715 404.899536 7
-0.11850096657074691 0.26259169437682134 0.83760328923452454 151 151 255 329.65271 401.316345 7
