ply
format ascii 1.0
comment Written with hapPLY (https://github.com/nmwsharp/happly)
element vertex 186
property double x
property double y
property double z
property uchar red
property uchar green
property uchar blue
property float ix
property float iy
property uchar octave
end_header
0.23868181244789666 0.33728718758434983 4.7932213628010425 255 116 135 403.200012 316.800018 1
2.3007381850981141 -0.06001444749159679 2.7436691779713449 151 178 255 705.600037 279.600006 1
0.99638650147481322 -0.33915041067919138 2.3328421658338954 245 255 238 546 231.600006 1
1.0021015944066785 -0.44399391550684486 2.6419389403043319 235 239 244 528 225.600006 1
-1.0696370599963134 -0.092122923349784391 1.5465234447115801 95 123 255 117.600006 267.600006 1
0.23656506696251567 0.39833491166153978 3.2016526740326405 255 120 139 411.600006 337.200012 1
-1.0767625680615138 -0.44989190009157798 1.5923063208459975 117 255 69 122.400002 178.800003 1
-1.2545275217430287 -0.184109990492901 1.5429338038582197 244 255 240 70.8000031 242.400009 1
2.3007381850981141 -0.06001444749159679 2.7436691779713449 84 150 177 704.160034 279.360016 2
-1.061810344594015 0.42846921831874996 1.9309947516362715 255 103 110 171.360001 371.52002 2
0.66383301960370966 -0.62340995463736626 3.4779456897469458 255 145 172 455.040009 221.76001 2
0.47411850726523763 -0.64233442032948485 3.9049770072748995 184 255 142 430.560028 223.200012 2
0.15346243429222861 0.56798818613545732 1.4218164926521006 218 255 209 426.240021 442.080017 2
-0.39596290872126749 -0.33299753006828636 1.7274367671526312 240 255 225 298.080017 211.680008 2
0.84599489775791414 -0.35130005207852866 3.0292456502478418 255 240 243 491.040009 246.240005 2
-0.34264589634474696 0.41586760960816593 1.7605580458241805 170 180 255 309.600006 381.600006 2
1.1016665958662419 0.42825664014588039 2.171671647758421 170 255 131 578.880005 364.320007 2
-0.31389244222958279 -0.31354010699322138 0.85384357457922233 255 214 221 243.360016 146.880005 2
-0.94371653573197856 -1.9362243582104868 4.1494669144214322 166 192 218 296.640015 106.560005 2
-1.0485371674198039 -0.97751421289662277 1.533098061258249 32 37 63 120.960007 43.2000008 2
-1.0122268533235337 -0.57925743942608587 1.4705089364752042 255 54 82 119.520004 138.240005 2
-0.96948146935289436 -0.61853899637382592 1.4095373883694933 255 56 85 119.520004 119.520004 2
-1.0218771636405708 0.20832771988859455 2.3414844502693795 125 132 141 216.000015 322.559998 2
0.55490482651371997 0.52007614314725514 0.79081771231055598 107 122 144 652.320007 542.880005 2
-0.38762469274239653 -0.33197391084437766 1.6746940333756144 233 240 255 297.216034 210.816025 3
-1.0699581242585396 0.32860904158339094 1.4609421774593421 81 81 255 101.952011 373.248047 3
1.0944645002574747 0.43022538653488829 2.1595325415975761 170 255 131 578.880066 364.608032 3
-0.94219925623080281 0.36866900210553682 1.4024123481704169 54 26 255 129.600006 387.072021 3
-1.0153943479316032 -0.42141616415922645 1.4699747027196115 72 93 121 120.960014 177.984024 3
-1.2273551133914715 -0.17511573974808126 1.5103778373607639 244 255 240 70.8480072 241.920029 3
-1.232176195576169 -0.81646398398597975 1.4856611509307216 194 215 255 65.6640091 77.7600098 3
-1.0478258287875852 -0.90810263166936767 1.4848272750165532 89 255 50 114.048012 55.2960052 3
-1.278686017515331 -0.99628862794328521 1.5799441822113516 205 255 155 70.8480072 43.2000046 3
-1.0488216702019924 -0.97385693181624267 1.5272560496959287 32 37 63 120.960014 43.2000046 3
-0.96915463356262066 -0.55023879894600292 1.4153274506796616 83 115 255 117.504013 138.240021 3
1.1840973836137474 -0.65660755161843443 2.2496641489677547 222 234 255 585.792053 172.800018 3
1.3537157193338072 -0.089234872776285279 2.2089515361787413 119 149 186 620.352051 273.024017 3
1.3281773380489397 -0.28746286080456507 2.2704419100876851 157 184 255 609.98407 238.46402 3
2.4008333089615692 -0.069017811847116972 2.8980045077338579 255 85 150 703.296082 278.208038 3
0.037343757587187332 0.0076585956236119301 5.815653824749587 255 95 117 387.072021 285.120026 3
-0.19144921382577129 0.55610491093861514 1.5950456280074699 236 255 235 338.688019 421.63205 3
-1.0025971036743377 0.38706171114708621 1.1498056172462667 202 206 211 48.3840027 418.176025 3
-0.45687059271896402 0.25865462829430075 1.5737947017598763 220 221 255 273.024017 350.784027 3
-1.1288496318203514 0.038252069504357555 1.5822793577675838 255 114 135 107.136009 297.216034 3
0.33782714407284109 0.45693474402290013 1.2426856761788221 180 255 152 490.752045 428.544037 3
-0.74118915311796352 0.19556710715887515 1.8883586583115726 111 255 88 230.169632 329.702454 4
-1.0806053815897396 0.33969506392795018 1.6875310738060767 55 255 28 134.784012 367.027252 4
0.21537271357717125 0.3581015199930368 1.0987134242060601 73 92 102 456.192078 412.646454 4
-1.0815108899897128 0.33182105542777629 1.4712768251929673 68 46 255 101.606415 375.321655 4
1.0615655728265629 0.50301636428002272 2.4541124735434083 35 49 255 553.651306 369.100861 4
-1.0092690501883514 0.47145119656068413 1.7372995520200343 255 36 41 159.667221 393.98407 4
-1.0248713010529409 0.39822287582184945 1.5503344107965988 40 54 17 128.563217 387.763245 4
-0.36784962563170609 -0.31443401054997083 1.5910955642615763 240 255 223 294.451233 209.433624 4
-0.57743615863790643 -0.068035506267038581 1.558918801506755 199 255 218 242.611237 269.568024 4
-1.2446090601237789 -0.025469660940600825 1.5039927009164082 246 255 244 66.3552094 282.009644 4
-1.0550443146847144 -0.17861706553072726 1.5102913054487592 255 42 48 111.974419 242.611237 4
-0.49606815133440385 -0.75524643364958588 1.8837762764594395 255 177 201 279.936035 132.710419 4
-0.55179775269403564 -0.53264319878238142 1.5929767387383165 230 255 204 246.758438 157.593628 4
-0.85214291304941803 -1.7274460200098452 3.6455022006268161 218 255 166 294.451233 105.753616 4
-0.93186601889938769 -1.8952285963502367 4.0856603852661113 166 192 218 296.524841 107.827217 4
-1.0488216702019924 -0.97385693181624267 1.5272560496959287 32 37 63 120.268814 43.5456047 4
-1.2297991203841572 -0.9655150617374888 1.5126813907531993 205 255 155 70.5024109 41.4720078 4
1.3791303715727414 -0.091585190997696797 2.3015528965124803 255 124 149 615.859314 269.568024 4
0.02425880179122375 -0.018126557730407611 5.6725043919662284 115 135 255 385.689667 286.15683 4
0.75934856465063283 -0.61999338188519015 3.776775594744838 241 242 244 464.48645 226.02243 4
0.3532074893561914 -0.48142114881319076 3.5994023256558227 156 167 164 420.940857 236.390427 4
-0.21780108790510955 0.61317117727519754 1.8243453049120024 235 234 255 337.996857 420.940857 4
-1.0084457562021543 0.39091940779540502 1.155417100161737 255 193 199 47.6928062 418.867249 4
-0.43839478095842521 0.44827102422853565 0.79120893116080593 184 255 162 174.182419 503.884857 4
-0.21596434730038849 -0.0024150601128563043 3.0893175923716036 138 255 96 358.732849 290.304047 4
-0.19889010306089894 0.47238718115236139 1.5066397739913469 255 68 84 331.776062 412.646454 4
-1.0916099700119313 0.15052690325946702 1.5608065380941003 67 78 101 120.268814 325.555237 4
0.41137548489925013 0.4105912698068086 0.67283561646343282 255 126 141 615.859314 518.400085 4
0.34842039819641912 0.46695370973516015 1.2730643275548426 167 181 255 489.369659 429.23526 4
1.3407595935520651 0.096113053010278837 2.1299793794951496 173 255 120 626.227295 306.892853 4
1.0768630632303782 0.41466845910699779 2.0905950092840451 170 255 131 578.534485 364.953644 4
-1.0512749176758529 0.36072371528110581 1.8743519065940628 88 255 57 166.717468 363.294769 5
-0.28008260193132806 0.35356504049511117 1.7965522199457071 88 111 255 325.969971 363.294769 5
1.324151924997089 0.12604726603672867 2.04903912766824 111 132 162 632.033386 311.040039 5
1.3073078625711847 0.10450057139487146 2.0682918661855076 132 166 255 629.545044 303.575073 5
0.16502971874154215 0.42528025184423845 1.3800120769446789 81 99 108 432.967743 408.084534 5
-1.459310217332864 0.65586130715669488 2.2405580149226623 4 7 4 136.85762 400.619568 5
0.83563701489157138 0.54970379207394793 0.97381912641067681 255 104 119 711.659607 507.61734 5
0.02425880179122375 -0.018126557730407611 5.6725043919662284 115 135 255 385.689667 286.15683 5
-0.58104836671969595 0.44452619432327661 1.3195823876108803 207 207 255 213.995544 413.061188 5
-0.61816841534142819 0.59001936057174409 0.9945590721098716 156 167 255 149.299225 517.570618 5
-1.1057555684092444 -0.94428922809290716 1.5702102009339365 91 255 50 114.462738 54.7430496 5
-1.22564904198937 -0.90971799039562962 1.4983079042782621 154 177 206 72.161293 52.2547264 5
-1.2052865199048175 -0.58376489941793108 1.4682583707541088 255 203 213 67.1846466 136.85762 5
-1.0234231139440233 -0.6498001733167964 1.4567467715694762 60 88 115 116.951057 119.439377 5
0.88920255509097101 -0.38254328964035755 3.3149347352104037 245 255 240 490.199097 243.855392 5
-0.56477446296768941 -0.46664892594569651 1.6245011724987917 229 233 238 248.832031 176.670746 5
0.30605256677727399 0.50542392187385521 1.0911166728432424 160 255 128 490.199097 465.315918 5
-1.0615316751531556 -0.17940774179947561 1.5051408610243864 255 42 46 111.974419 241.367081 5
-1.2273551133914715 -0.17511573974808126 1.5103778373607639 240 241 244 72.161293 241.367081 5
-0.42026072803001213 -0.6781525686107629 2.7796443336167487 118 138 255 325.969971 199.065628 5
-0.51457451757370976 -0.090810103280251298 1.597541904857164 135 255 102 258.785309 263.761963 5
-0.59691326240148834 -0.061934059015285092 1.5956771502506202 255 191 194 243.855392 268.738586 5
-0.25024708733215117 -0.16058932869997739 1.085270045162563 235 239 244 296.110107 236.390427 5
-0.90907673895627683 0.43923699599334104 1.0206215460831665 255 227 227 47.2780876 452.874298 5
-1.1339626089730723 0.44685375266701149 1.3521040178462025 156 255 130 62.2080078 413.061188 5
-0.25259206260388356 0.00055646683620058646 3.4130913186671643 96 118 138 360.806458 291.133484 5
-0.60216744878270578 -1.9398681500858928 4.3587072152913109 194 220 255 333.434937 116.951057 5
-0.36798489559053538 0.46843947069266773 1.5825104722537708 149 158 172 296.110107 403.10791 5
-0.18164276055227324 0.53431553509604213 1.5280524059788907 234 255 234 338.41156 420.526154 5
-1.0568410228589888 0.22041510844666301 2.3994396252266217 152 160 255 213.995544 323.481659 5
-0.21992105565908848 0.55318065781049275 0.8808732047615635 111 137 154 288.645172 525.035583 5
0.25117332326532571 0.25746162531825767 3.8266987859123924 182 255 164 410.572845 316.016693 5
0.16266806101328823 0.53479258227997595 1.2370767728316965 223 222 255 437.944397 457.850952 5
1.2172209118978325 0.26673861708081081 2.0481862604038659 152 255 81 614.615112 338.41156 5
-1.0750057121913184 0.32587924804845592 1.4466046029701354 89 255 66 102.021133 373.248047 5
-0.99021011041498719 0.18166150986308471 1.8992328120023183 104 109 127 184.135712 323.481659 5
1.1959776401439579 0.51011837710436969 1.9602041395303358 126 255 130 622.080078 390.66629 5
-1.2709525981424985 -0.41130777231650384 2.5396897023371423 227 255 225 186.624023 223.948837 5
0.98364131521961617 0.4502873605021907 1.5020531229317231 35 255 13 630.042725 400.121918 6
0.032864022943071447 0.39378355796801701 2.4069070634940282 255 38 63 391.163971 349.360199 6
-1.0115522530402976 -0.57512142102241148 1.4343764046740093 59 86 117 116.4534 137.355286 6
0.67578144137150753 -0.66543760484241155 3.737794926811933 157 176 255 453.869659 220.96286 6
-1.0664023698784488 0.028873882517519101 1.6211375227020435 82 104 127 128.397339 298.59845 6
0.0020690161471517143 0.019298472245585341 5.898350155728119 115 135 255 385.192017 286.65451 6
-1.0762208506230517 -0.74959314214244843 1.533553733350304 67 91 118 116.4534 98.5374908 6
-1.182611601216446 -0.71550034379330796 1.4263638830582468 203 220 255 65.691658 98.5374908 6
-0.55565640798503901 -0.53981264498488424 1.5978399274275801 210 219 229 244.850739 155.271194 6
-0.35250546211194056 -0.43376957213380551 1.4942619867597049 235 255 215 298.59845 176.173096 6
-1.0632979608822497 -0.11105424849734408 1.5059319015448644 81 104 255 113.467415 259.78067 6
-0.3923030138500665 0.27935195934249146 1.8513831127979072 83 255 79 298.59845 346.374207 6
-0.64013432127512893 0.13366385954211624 1.6978137502038639 152 255 118 238.878769 322.486328 6
-0.95368257386443611 0.38479660506371599 1.436169095503268 42 55 19 128.397339 388.177979 6
-1.3020763546912066 0.39962518586933765 1.5679832619799314 166 255 210 62.705677 382.206024 6
-1.1327780556718983 0.33191857060605312 1.5526610837590669 81 81 255 101.523476 373.248077 6
-0.515164012047995 -0.093674322738800941 1.5901701737372607 255 106 114 259.78067 265.752625 6
-0.61314968395309233 -0.072093640377700774 1.6129578928770076 219 220 255 241.864746 268.738617 6
-0.37002477667582934 -0.21834786125743999 1.570338362533847 234 239 244 292.626495 235.892776 6
-0.74963439045061087 0.42425148933171597 1.0067125365622309 159 180 255 101.523476 447.897675 6
-1.0367552514021341 0.41341176588125433 1.2328484934274297 156 255 128 62.705677 412.065857 6
0.27447526493015761 0.28624001242581365 4.1789773400142582 170 178 255 409.079895 313.528381 6
-0.32963428202761902 0.43564476085800141 1.4343085713222687 255 142 152 295.612457 403.10791 6
-0.42750271413200913 0.23554350355369535 1.4415911430581541 255 227 228 271.724609 349.360199 6
0.32245049973911799 0.32678342571924845 0.77233576811528248 255 198 198 543.449219 450.883667 6
-0.55586936698051437 -1.8324290241453491 4.1026136390103112 255 167 195 331.444275 116.4534 6
-0.26924850735416594 0.20633056732018296 2.8343957049160382 119 139 255 349.360199 316.514374 6
-0.59843130603159755 0.46507702885389302 1.2052967244820616 255 155 166 191.103012 438.939728 6
1.3557753075721282 0.46277433151546488 2.0260172189078745 129 135 144 644.972656 379.220032 6
-1.0568410228589888 0.22041510844666301 2.3994396252266217 148 255 141 214.990891 322.486328 6
-0.76365437104796463 0.11710496791556202 1.6210721345157206 204 255 194 206.032928 313.528381 6
1.16143589693008 0.4282287070941766 1.8839395510554535 255 28 37 627.056763 373.248077 6
-0.27176169966314534 0.34573954992339045 1.4222067587852525 177 255 156 310.542389 379.220032 6
-0.19375888161530996 0.47485356680436996 2.1440993885937898 57 85 107 352.346191 370.262085 6
2.4362744549243271 -0.069918941388670608 2.9441748822475251 81 150 177 704.692383 280.682556 6
-0.66896324734989054 -1.3651628379865317 2.8984406425832665 255 166 192 295.612457 107.495445 6
-1.1400325511219624 -0.39005388271283858 1.6557189004760851 88 100 123 116.4534 197.074982 6
0.019761085104161857 -0.001384236375006509 5.9171113022943533 255 92 115 383.400421 286.654541 7
0.36509005439602404 -0.50969584254826361 4.1353109253537603 255 160 172 419.232239 240.073166 7
0.92415474136797349 -0.44470654883715233 3.4461533064190455 245 255 240 490.895874 240.073166 7
0.83475097058369963 -0.57177505743320334 3.3844041605071506 235 238 243 476.563141 222.157257 7
-0.4382069041069836 -0.67879321110176427 1.5886080962397053 255 171 198 283.07135 125.411354 7
-0.36160836242302441 -0.30632062568516127 1.5678499997736886 233 240 255 293.820892 211.407715 7
-0.53833520072942243 -0.44786396158502728 1.572799637128842 255 231 234 247.239532 179.159088 7
1.2869451915544174 0.15979231684976047 1.8549951200440358 93 128 167 648.555847 315.319977 7
-0.62541433861913687 -1.4116632083128882 3.8730687203611982 255 187 208 315.319977 146.910446 7
-0.26328702933493275 0.0081384975980793861 3.6050575804459219 138 255 96 358.318176 290.237701 7
-0.33164021730847049 0.43651336981145122 1.2837261507329698 255 151 160 283.07135 412.065887 7
-0.32215386290517323 0.43862303482223375 1.4771935479163321 125 131 141 300.987244 401.316345 7
-0.56929762731089939 0.44364942641497346 1.4907453063117195 146 151 159 240.073166 397.733154 7
-0.35671276070272473 0.23331357593118079 1.6257294088905239 65 72 255 297.404083 347.568604 7
-0.69996897102046418 0.37488433782475283 1.6456859133555515 189 255 191 222.157257 372.650879 7
-0.61314968395309233 -0.072093640377700774 1.6129578928770076 220 221 222 240.073166 268.738617 7
1.0520804506323962 -0.69842344380136545 2.3856036040770761 255 220 227 555.393127 179.159088 7
-0.76963445278694254 0.4449293808387505 1.0472018784232442 144 159 180 100.329086 447.897705 7
-0.95074659837312492 0.42288234080609916 1.3350476548043519 0 255 0 118.244995 412.065887 7
0.26180024877099717 0.24451561021117219 4.5234320769341734 155 169 180 408.482697 311.736786 7
-0.90619344601637986 0.0021565864654867206 1.4322284315221507 99 255 53 146.910446 286.654541 7
-1.2670105142056256 -0.38593226403871961 2.5185179500972952 228 228 255 197.074982 232.906799 7
1.3848775362896859 -0.070863708753885923 2.3161255325790613 255 131 153 619.890442 279.488159 7
1.1991772761144779 0.25769586248692278 2.0237520600501249 76 89 111 612.72406 340.402252 7
-1.027896476700044 0.34308205333802866 1.6451129101860471 255 32 42 143.327271 372.650879 7
-0.57161509644311659 0.44455145852447731 1.1445188614037369 168 186 255 189.90863 437.148163 7
-0.57123718830726622 0.42144488254731399 1.2638612212286122 255 204 205 211.407715 415.649078 7
-0.28281541409171673 0.35905151240216709 1.5049232949156255 255 156 169 311.736786 379.817261 7
-0.19711395117522823 0.52303304553153285 1.6162305185977579 232 232 232 336.819061 419.232239 7
1.1979653844472329 0.476726450665655 2.0282733161139026 47 51 59 616.307251 379.817261 7
-1.007919354101559 0.21937365333720404 2.255234838768625 255 182 186 211.407715 322.486359 7
-1.0329141250218274 0.11952729821903041 2.1749588833392544 255 201 203 207.824539 308.153625 7
0.16148311033983043 0.37422643176041048 1.1271191588237275 89 97 255 437.148163 408.482697 7
-1.0140623068044241 -0.64000433531210077 1.4344695175971101 113 255 61 114.661812 118.244995 7
-1.2745746643428966 -0.85450582122998564 1.5699822012196489 185 198 216 68.080452 78.8299942 7
