ply
format ascii 1.0
comment Written with hapPLY (https://github.com/nmwsharp/happly)
element vertex 238
property double x
property double y
property double z
property uchar red
property uchar green
property uchar blue
property float ix
property float iy
property uchar octave
end_header
0.63667647000656358 -0.43187611021658334 3.5165519732910497 110 255 22 454 241 0
0.83432262776529353 0.15477378521561941 1.5474612680556168 43 53 71 592 328 0
0.87470266542072894 -0.12329149427723687 1.4644696792000624 50 59 255 613 256 0
0.58431997560322957 0.40009904185495371 1.3937113032146127 47 64 92 544 397 0
-2.2819812835826996 -2.2706191781935186 3.4757455843638847 119 164 255 133 37 0
-2.477138399609776 -0.67732824116289281 3.8193029136529022 223 226 232 136 220 0
-0.19518486491240794 0.05663889700140104 1.2687107311329526 189 187 255 325 304 0
-0.29726649379335157 0.10913542000099188 0.47589363972144427 191 188 255 145 377 0
-0.14157073019033406 0.34763017949692199 0.87246825501390979 174 255 160 322 439 0
-0.011167857367935574 0.38503657999987462 0.57008266452173173 166 169 170 376 547 0
-1.953802859969854 -0.68835572499825393 3.8740588274081289 200 255 190 190 220 0
-0.28907849370789329 0.13364565240637763 0.39642146352499291 255 172 179 103 419 0
-2.5062663243159018 -1.501951109012472 3.6272870213913961 206 255 178 118 130 0
0.77530236654979179 -0.14992641804468132 1.7878192536491773 255 30 42 551 256 0
0.76067778133946407 -0.080919148200347318 0.87811635932155019 239 255 236 718 253 0
0.78223501209381774 -0.0099103041477700618 0.8690447602311423 237 255 237 730 283 0
0.80628070658435325 -0.059955625954346385 0.87342511264637612 255 93 105 739 262 0
-0.12894561142735356 0.27060091024069927 1.080311624841636 160 169 173 340 385 0
0.76974427184201599 0.25445113649815981 0.87101200373098009 43 60 75 724 400 0
0.63677681554454191 -0.68416188632101727 3.5185950522408813 24 72 106 452 214 0
-2.7198227910972248 -0.30819195779740666 4.0997075025193643 237 255 233 130 259 0
0.82453308163527772 -0.18798414282164197 3.6131351033622536 37 76 102 472 268 0
-0.30320289172997317 -0.53215350354795699 1.3683547361998267 201 255 141 298 139 0
0.75576949259697868 -0.064649997155119779 0.94388384468661291 255 238 239 691 262 0
1.3646557743126242 -0.17992624955629255 5.1355900449182501 255 112 141 487 274 0
-0.20960419803304398 0.1372597853483436 1.0238905993486973 75 88 108 304 340 0
0.6900203859244074 0.26360803835843727 0.97696318267441917 255 62 75 655 392 0
0.70265363386566437 0.17735234665109173 0.94332466213693644 123 255 81 670 361 0
0.49640670320842578 0.41042755944559151 1.4442349295149763 91 122 255 517 397 0
0.59846949808420091 0.34343536738431463 1.4015178973858664 255 61 75 547 382 0
0.11394956208257667 -0.23913682234327188 3.516245622955056 41 84 108 396.000031 261.600006 1
0.78677433487333748 0.14721170781552184 0.86898925016591666 181 183 182 732 351.600006 1
0.16944904615778317 -0.65663679841655054 3.536178861474053 43 87 118 404.400024 217.200012 1
0.16692717333674786 -0.8601939714894199 3.8074540171119939 130 255 52 402.000031 201.600006 1
-0.11348744140341166 0.40433884748352317 0.63930244685981941 169 255 170 314.400024 529.200012 1
-2.4120941106871325 -1.104336472340137 3.7365850454748557 255 211 216 135.600006 172.800003 1
-2.5504103610628142 -1.0916147749711715 3.7007141790771794 225 229 255 117.600006 175.200012 1
-0.33903838997775748 0.36884371071737398 0.70615940148650691 255 165 171 199.200012 489.600006 1
0.81031932510403493 -0.059715809448734704 0.87790063760684356 255 93 105 739.200012 262.800018 1
0.83690439279458828 -0.19229253366369653 3.6941476262527844 36 77 102 472.800018 267.600006 1
-1.7817030048017086 -0.59450995088551672 3.8448154141577109 255 209 210 207.600006 229.200012 1
-0.23025524503573236 -0.29263069117104418 1.2955439358613339 255 217 222 315.600006 199.200012 1
-0.28452938981137033 0.26755044487511659 0.42132265389942292 255 84 95 123.600006 531.600037 1
0.70018473247080193 0.36292297484676855 1.0198625752008181 219 218 255 649.200012 423.600006 1
0.74891726183196194 0.28291146320102861 1.736840963686948 141 255 104 550.800049 349.200012 1
-0.23267718743347343 -0.22121233838385351 1.3014715944421089 255 203 217 315.600006 223.200012 1
-2.1292571547768571 -0.75160138609563909 4.2018917729698773 194 198 255 189.600006 219.600006 1
-2.5414798897068951 -0.36636905269154751 3.6793657008506879 230 235 255 117.600006 249.600006 1
-0.30079839489332638 -0.530232567054709 1.3594531952223288 168 200 255 297.600006 138 1
-2.6475142595051926 -1.8483825556179885 3.8789862898788439 200 255 171 122.400002 104.400002 1
0.81820429258079952 -0.090264173559874081 1.5111723166960092 255 38 47 591.600037 265.200012 1
0.72795719473612519 -0.14081670540345981 1.6577776244565061 47 255 26 550.800049 255.600006 1
1.2122843968632528 -0.1775685761479735 4.4917915878963708 255 111 138 487.200012 273.600006 1
-0.31166189220209328 0.3214404439380969 0.67923612121428922 255 179 183 207.600006 471.600006 1
-0.22210995624584295 0.39604125492599546 0.90967689959576781 106 255 72 290.400024 453.600006 1
-0.23181448890770062 0.41211632300528434 1.0164031359936498 255 76 87 295.200012 442.800018 1
-0.25445257008842792 0.41955913848833332 0.80766517259901238 18 255 9 262.800018 489.600006 1
-0.22661820539870803 0.14405277983824386 1.0883459744110184 75 89 108 304.800018 339.600006 1
0.70684538357674465 0.41743382268750895 0.80765677304964534 77 93 255 721.200012 487.200012 1
0.71204369220422681 0.273898820944104 1.0056170747386817 96 255 61 654 391.200012 1
0.84947983127096816 0.40260863582139456 1.5880316707019628 212 255 219 590.400024 385.200012 1
-0.13065764138106523 0.26280053861497871 0.87878196614606208 167 175 178 328.320007 401.76001 2
0.78365289913651881 -0.012133080469784292 0.86876743459734118 235 255 237 730.080017 282.240021 2
0.8074745143458274 -0.057125998585380811 0.87193931605567321 126 255 95 738.720032 263.52002 2
0.81082934069264034 -0.19357201161631113 3.5070707403942345 36 77 102 472.320007 267.839996 2
-2.1991102391664121 -0.54688508204824238 4.2175978139469539 100 255 59 182.880005 239.040009 2
-0.20170680946480302 0.072521912025121496 0.9829900340162756 96 117 255 305.279999 315.360016 2
-0.21873188412802158 0.0034762053592194385 0.9815407214558487 85 97 118 296.640015 292.320007 2
-2.4000556312871328 -2.1602640807462938 3.5098410692803768 255 91 125 119.520004 53.2800026 2
-0.31127164840679544 0.031657143506266014 0.67888641762478996 255 156 159 207.360016 306.720001 2
0.70615220771935938 0.39439006198155441 0.95495635935362744 128 255 94 666.720032 444.960022 2
-0.12724706913824801 0.26969450561906178 1.0784479883458766 172 175 255 341.279999 384.480011 2
0.76140926538187359 -0.083034343572219144 0.88057067817153811 255 236 237 715.680054 253.440002 2
1.1307822181583402 0.25461835753463624 3.3397406800963481 255 33 45 515.52002 316.800018 2
0.78382815582567322 0.19126215921726553 0.8687670269169534 195 255 197 730.080017 372.960022 2
-0.23537418497242768 -0.259109984540139 1.3109999318060483 255 211 218 315.360016 213.12001 2
-0.23011661699790176 -0.038851459357127735 1.3151499048534505 223 226 228 316.800018 276.480011 2
-0.23137658860245547 -0.21953905427928058 1.283265485398998 255 203 217 315.360016 223.200012 2
-2.6590149463892407 -1.1902244815673662 4.0587475422830561 218 221 227 132.480011 177.12001 2
-0.3050848783998078 -0.53485945062341622 1.367006742216214 200 255 140 298.080017 138.240005 2
-2.8293519601777994 -2.316715837543823 4.1492527809771076 175 255 104 122.400002 72 2
-2.3069877152787432 -1.2815896649355425 3.6977705025894205 184 196 211 144 154.080002 2
-2.5162993269892544 -1.7683849568030465 3.7081388229273511 200 255 172 122.400002 105.120003 2
0.71325677129071585 -0.86226110520617882 3.2682391321775706 56 85 113 468.000031 187.200012 2
0.10942518213114738 -0.24822433612573055 3.6612025832115855 41 90 116 396.000031 262.080017 2
0.76785181095990995 -0.14799170446846763 1.7623872885154117 255 30 42 551.52002 256.320007 2
1.3132376323710351 -0.19147528219099422 4.9548992242630172 145 255 130 486.720032 273.600006 2
-0.25217839498244998 0.39958018421240843 0.6500533556315915 156 255 135 234.720016 522.720032 2
-0.26291932984271049 0.43202404933619359 0.83891012831189793 7 7 18 264.960022 488.160034 2
-0.030718727897898646 0.38171051827989139 0.59032399040677319 167 169 172 364.320007 537.119995 2
-0.12380349998553963 0.42196017582632944 0.676232269669096 165 167 165 312.480011 529.920044 2
0.68562010976811738 0.35622842026483326 0.99355727252335924 218 219 218 648 424.800018 2
0.50083293373544879 0.41818210492384777 0.6671528414350425 73 84 102 672.480042 528.480042 2
0.16743678976282461 0.19051914309988979 0.50858855319906093 255 91 100 511.200012 433.440002 2
0.73061100788944633 0.026706814849376568 0.99435775727758702 232 236 242 668.160034 298.080017 2
0.85408143735409259 0.37078786651440532 1.4545419310313723 255 78 85 607.680054 388.800018 2
0.68504461587168664 0.17151651956780645 0.92040614310454016 81 97 123 668.160034 360 2
0.075135006919409331 0.21601594861473211 1.7473305498999299 255 43 88 403.200012 334.080017 2
-0.2894888665199491 0.37695889903466046 0.57416711740697557 128 255 121 190.080017 537.408081 3
0.47352926455273303 0.38971885837783482 1.4033474308907752 129 255 81 514.944031 393.984039 3
1.2390252475481858 0.1414828313394928 4.3667590824105815 109 255 75 494.208038 302.400024 3
-0.29211726503120816 0.16721825339889554 0.4667739990909624 255 125 141 143.424011 421.63205 3
0.15397540528752521 0.25453232004709825 0.46185922807356306 255 101 115 511.488037 497.664062 3
-0.074172869839395639 0.29658348137158685 1.6792669537882647 187 255 164 366.336029 354.240021 3
-0.2921702576189209 0.2457870831633531 0.46400496247981537 151 149 255 141.696014 492.480042 3
-2.6014853903655411 -1.1235135055261376 3.7771815057432239 225 229 255 117.504013 174.528015 3
-2.1710214509751511 -0.2260141407607143 3.5063758062351162 221 224 255 145.152008 262.656036 3
-2.6806194908295775 -0.3874880474425797 3.8739930411450492 231 235 255 117.504013 250.560028 3
-2.4235849911041787 -1.3296644587375221 3.8706008407346975 255 184 196 143.424011 153.792007 3
-2.5623753115512238 -1.8102847604843539 3.7716419212401679 199 255 169 122.688011 103.680008 3
0.74332219930028609 -0.12657420254240997 1.5824299319260822 143 146 255 565.05603 257.472015 3
0.17999801495153234 -0.72782079801601673 3.3527627228881651 129 255 53 402.624023 202.176025 3
0.61369983105578685 -0.91120877307573367 3.4586674600390288 22 75 112 452.736053 188.35202 3
0.3092641113018002 -0.93360766359063807 3.5392651230678522 34 82 116 416.448029 188.35202 3
0.81370823651822477 -0.18621061219548726 3.5746632147169035 255 35 74 471.744049 267.840027 3
0.101131028226362 -0.25913536584833585 3.659654983723414 255 43 77 395.712036 260.92804 3
1.2067946971062531 -0.1749008682002608 4.5465381757616692 160 162 255 485.568054 273.024017 3
-0.2227003281369726 0.39612042365122252 0.91477292179956649 106 255 72 290.304016 452.736053 3
-0.1468089627045901 0.39962103567685098 0.89498494422355612 169 171 255 321.40802 457.920044 3
-0.25548091622432223 0.40001110912296411 0.65100199712578144 255 142 151 235.008026 521.856079 3
-0.25193220364384172 0.42231252734450953 0.81305091704374777 9 9 19 264.384033 487.296051 3
-0.29144824430927874 0.21548078849685393 0.46591700585627249 255 142 148 143.424011 464.832031 3
-0.31337762291780813 0.081598202294118793 0.68132148019401451 255 36 50 207.360016 335.232025 3
-0.21034918906631428 0.0044821486682616977 0.94142168693969519 255 86 98 295.488037 292.032013 3
-0.13785715703733026 0.27110294987976818 0.91345251676690353 165 174 178 328.320038 400.896027 3
-2.8207072607019157 0.15854073020095441 3.9534758629072506 255 214 206 107.136009 302.400024 3
-0.29247731566592672 0.11036786050165229 0.4671999105054484 255 182 188 143.424011 378.432037 3
0.78379886505482044 0.29711988017783647 0.87207183367961816 93 255 98 730.944092 418.176025 3
0.5003363403279748 0.41801864266363936 0.66778881862395345 70 82 100 672.192078 527.040039 3
0.16757597664669055 0.18891218062871246 0.50132234989325264 255 99 108 511.488037 432.000031 3
0.72486716199670453 0.024248838889220949 0.98628108488155886 255 232 236 667.008057 297.216034 3
-0.31517608781340523 -0.50643799921936961 1.3301732623264191 143 171 202 292.032013 141.696014 3
-0.090172121672818628 0.28725883252680962 0.99525739293629489 170 176 179 352.512054 400.204865 4
1.3337964501075008 0.1666180453024067 4.6767677475553215 85 100 255 493.516876 302.745636 4
-3.1739227711502522 -0.63659926029117841 5.6905334825449234 255 49 69 167.961624 246.758438 4
-0.2344328486760584 -0.26513693163626473 1.3364268765185792 217 226 255 317.260834 211.507233 4
-2.6251038132783178 -1.1660939233616454 3.9980991339018841 218 221 227 132.710419 176.256027 4
-0.16015112086461503 -0.57962911388736948 1.3640584922979273 196 255 136 342.144043 124.416016 4
-2.6894668186416473 -2.3916998896203623 3.9003856737246476 90 124 167 120.268814 49.766407 4
-2.6606330784801591 -1.8755154743200502 3.9098830155546516 199 255 169 122.342415 103.680016 4
0.74138522706595233 -0.14096360254057877 0.88041583950062863 255 222 227 707.097717 228.096039 4
0.69263956660174353 -0.098125622688819109 0.93934329403807559 255 230 233 667.69928 246.758438 4
0.20700200343908079 -0.95342584781898054 4.3588116955143148 130 255 52 402.278442 201.139221 4
0.29447228653571661 -0.92951524823560361 3.2068853745516464 41 87 119 416.793671 176.256027 4
0.10107183926794772 -0.26644386465429815 3.8115408643720254 84 110 255 393.98407 261.273651 4
0.73356508282635935 -0.13784555769829138 1.666414922753618 255 31 43 551.577698 257.126434 4
-0.23648306234322403 0.41361632197468573 0.96013366878084638 106 255 71 290.304047 454.118469 4
-0.19327884610920198 0.31926683604274997 0.95758073367953678 112 255 77 302.745636 416.793671 4
-0.24582895726925913 0.39081944373956562 0.63494021140078605 156 255 135 234.316833 522.547302 4
-0.24832675583797614 0.41345558006268968 0.79800762158193661 13 22 255 265.420837 487.296082 4
-0.13171784936601905 0.4296227259446978 0.68745855753466967 173 172 255 313.113647 530.841675 4
-0.27307070294575675 0.32106710521944076 1.2695441459976085 109 255 75 302.745636 385.689667 4
0.50014331265320899 0.41795253727222631 0.66867605975823285 255 65 78 671.846497 528.768066 4
0.89301717118451407 0.42620198866328629 1.6790491894491004 212 255 219 590.976074 385.689667 4
0.71412093213087058 0.32636322330835305 1.0060110456426294 217 216 255 657.331299 410.572845 4
0.38241322929482052 0.32223956091870209 1.8479301345144403 45 72 87 464.48645 350.438446 4
0.73221738750532384 0.069679532634660563 1.7312767999983316 53 61 255 545.356873 304.819244 4
0.59391707081846934 0.33003247790453705 1.365990681438128 255 56 71 547.430481 379.468842 4
0.67380619847339474 0.37858697246228046 0.97637837830167395 121 133 154 644.889709 435.456055 4
-0.31576634972216189 -0.51065353544385728 1.3361882819809001 145 172 203 292.377655 143.078415 4
-2.450981093143223 -0.34763607141081043 3.584740628501923 235 255 228 118.195213 250.90564 4
-2.7687709904418165 -1.1623625252479366 3.9905539006172761 229 255 223 118.195213 174.182419 4
0.94006514678218411 0.081372003820942729 3.1467190795519366 255 70 82 495.175751 301.086761 5
0.35298923971142354 0.3496763144031646 1.5759834862694637 79 255 28 470.292542 368.271423 5
-0.15883989048470792 -0.57837425603056669 1.3556174518080211 135 162 196 340.899902 124.416016 5
-2.1884332518192524 -1.7468174165487165 3.4969351197541831 161 190 255 141.834259 97.0444946 5
-0.26390728164161847 0.40346486081890015 0.66231062583358447 139 142 255 233.902115 520.05896 5
-0.21883410643279178 0.0025500701660494856 0.98468119163805889 92 104 123 296.110107 291.133484 5
-2.7348850113323246 -1.9378419573642092 4.0078091545591219 178 199 255 121.927696 102.021133 5
-2.8230903352678069 -2.5224026268969983 4.0832800160203728 255 91 125 119.439377 49.766407 5
0.81066172531332714 -0.18624320133256039 3.5237137551700823 36 77 103 472.780853 266.250275 5
0.76867879959606289 -0.14897839006406466 1.76593677620525 32 46 54 552.407104 256.296997 5
0.024115608549703405 0.34037635711072711 0.56595340009486628 255 184 168 403.10791 520.05896 5
-0.11661914449796607 0.40860498685567925 0.64772880185276283 123 123 125 316.016693 525.035583 5
-2.851086523094577 -1.2568947426518662 4.3167898596975203 255 219 222 131.880981 176.670746 5
0.18883927707047415 0.21568076464208463 0.50880619609732902 255 192 194 527.523926 450.385986 5
0.76698131762620747 0.05885070719387582 1.2501333388145006 255 76 81 619.591797 308.551727 5
0.7739770846734888 0.32991500436607624 1.5457810486229968 98 112 255 577.290344 370.759735 5
-0.28754016250283487 0.11144464233134052 0.42557260022015436 187 193 192 124.416016 385.689667 5
0.18037427184985164 -0.74570271095656948 3.4439656485136432 255 51 100 403.10791 201.553955 5
0.61781110950260865 -0.91022331355089148 3.4668401758073664 22 75 112 452.874298 189.11235 5
-0.28484447971293736 0.34613113466358758 0.56813556653370623 255 173 176 191.600662 520.05896 5
-2.5384992564070208 -0.60889409750257584 4.7565567706097465 71 91 255 181.647385 236.390427 5
-0.15593871337741372 0.40146489878666791 0.89890753022148451 172 255 171 318.505005 457.850952 5
-0.23978232147421019 0.37371341509490819 1.1084146923998182 255 78 90 303.575073 415.5495 5
0.73355965499248255 0.058160852125960324 1.6942286367333661 56 64 255 549.918823 298.59845 5
-0.35870123453009584 -0.56422148756057333 1.4831717820270596 171 202 255 293.621796 141.834259 5
-2.8158957336703097 -1.1962559939785935 4.0626372537144428 255 223 225 119.439377 174.182419 5
0.20706569857400828 0.24198347571558856 0.45325434587746638 126 255 102 558.379089 492.687439 6
-0.066089022017198629 0.14134078869388617 1.9260737449427303 255 170 179 367.276093 319.500336 6
-0.10213878973187773 -0.71315551340472205 3.9670159779968861 227 255 206 370.262085 220.96286 6
-0.21599736423311899 -0.2578978762732046 1.2715618605817147 212 218 226 316.514374 209.018921 6
0.80028696483667727 -0.12675366321815248 1.7193304950207355 125 135 140 564.351074 259.78067 6
0.89105587177549128 -0.12645677020729529 1.4983358777614899 30 45 53 612.126831 256.794678 6
0.73697381145761232 -0.13923573870716205 1.6553418930268144 32 46 54 552.407166 256.794678 6
0.79721266088676979 -0.20226938813597245 3.422640599781777 255 35 76 471.785553 265.752625 6
0.75424120796823779 -0.14991262358985852 1.7172115925989146 54 255 34 546.435181 256.794678 6
0.72616550759433629 -0.77283010515286132 3.5389342749993742 106 126 255 465.813599 203.046951 6
0.18291583683931242 -0.87833257066585269 4.0300457287780471 51 87 118 400.121918 206.032928 6
0.73083527921126912 -0.11614878201118509 0.93616311074921699 255 229 232 683.790466 241.864746 6
0.83350582198022027 -0.17247398798375224 1.2327822379386435 230 233 236 644.972656 235.892776 6
0.16474235253385214 0.11017547908076702 2.3094730287536787 28 77 104 412.065857 310.542389 6
0.6853053917082953 0.3757342086187051 0.92631647062091338 105 129 255 665.874573 444.911713 6
0.66298519969166125 0.36269463015427283 0.96056338084154591 188 190 192 644.972656 426.995789 6
-0.30890397639100831 0.36055174014960112 0.60469958901256216 255 141 146 191.103012 516.575317 6
-0.21084987999880012 0.34079315968393331 1.0233534290805657 78 90 113 304.570435 415.051849 6
-0.0025980337205365189 0.28474813519581466 0.73930967012073767 183 181 255 385.192017 435.953735 6
0.74996688916117193 0.43279508752893808 1.8350721383561952 84 255 42 546.435181 376.23407 6
0.34432704695953864 0.30522894507577158 1.5647164985665196 255 30 61 471.785553 367.276093 6
-0.13258420923484598 0.26472764083829048 0.91956581416628913 165 174 178 328.458313 400.121918 6
-0.027297232035680574 0.27742807060980562 1.7328883827271284 183 186 255 373.248077 349.360199 6
0.74330653475264108 0.057191155692531963 1.793662592488207 26 255 13 546.435181 301.584442 6
1.0436777947778926 0.093537177644778619 3.5165252733083441 255 70 82 495.673431 301.584442 6
-2.6576468756528415 -0.65707600394382304 4.9723179389009182 255 51 67 179.159073 235.892776 6
-0.9828073086844471 0.10630387863430539 1.4855301707401372 173 255 170 134.369308 313.528381 6
-0.20757254484869847 0.38223961464910772 0.89402458318356004 73 85 106 292.626495 450.883667 6
0.76369302448834586 -0.88374739915380174 3.5303308500532964 53 84 112 468.799591 191.103012 6
-2.635215670296299 -2.0853562207949552 3.7871680201225835 108 136 177 116.4534 74.6496124 6
-2.637774026115228 -1.1714094830388098 4.0027097872347825 255 219 222 131.383316 176.173096 6
0.72118761402285947 -0.11043049078553441 0.92541610243811323 229 232 236 680.804504 243.656357 7
-2.4895415436076833 -0.97047216396380687 4.964923437749091 199 201 255 189.90863 214.990891 7
-0.20238320903895746 -0.24311074890778106 1.1810041945234238 199 255 209 318.903168 207.824539 7
0.31705182332415938 -0.95777744924096408 2.9813480855132304 127 255 38 422.81543 157.659988 7
0.88163979758332434 0.26632560589624626 1.4167031602302818 255 204 205 619.890442 365.484528 7
0.58873026571843212 0.23114785926189679 1.351180366908566 101 114 136 548.226807 354.734985 7
0.49702002551695579 0.33867565896804397 2.7067396577868519 255 17 70 455.064056 333.235901 7
0.70142143158642711 0.39403172104348799 0.97943935179413288 115 255 71 662.888611 444.314514 7
0.67283300160181136 0.37229345101026967 0.97616986214791313 138 148 255 641.389526 429.981781 7
-0.23019858346965394 0.36192822045227535 1.0879490297705334 78 90 113 304.570435 415.649078 7
0.91638236676546714 -1.0274841315797993 4.5762249652150695 114 255 37 462.230438 207.824539 7
0.17548124025971393 -0.84569561424359518 3.9026780701522208 93 124 255 401.316345 207.824539 7
0.63146107062859302 -0.92463593679504452 3.6366611838009786 255 32 72 451.480896 193.491806 7
-0.14016096962215163 0.27191054707469864 0.93184259368567401 176 179 255 329.65271 401.316345 7
1.1559150104143985 0.099779361700477742 4.0120725245981443 102 255 51 494.479065 300.987244 7
-0.23315314843684032 0.0069821588279529029 1.0168918118404897 98 119 255 293.820892 293.820892 7
0.69072909746546918 -0.16781826305717804 2.8316124520396944 37 78 103 472.97998 265.155426 7
0.59699603453787264 -0.75278936569756216 3.0526697741507216 104 125 255 465.813599 193.491806 7
-0.19006850939176323 -0.61652244533399458 1.5340492130847185 138 167 199 340.402252 136.160904 7
