ply
format ascii 1.0
comment Written with hapPLY (https://github.com/nmwsharp/happly)
element vertex 136
property double x
property double y
property double z
property uchar red
property uchar green
property uchar blue
property float ix
property float iy
property uchar octave
end_header
0.41836248394893527 -0.19199388667704148 0.88135138033681737 207 217 230 568 205 0
-1.9875774372381962 -1.0396533376954407 3.3789565950521214 220 229 255 157 169 0
0.53497108914702196 -0.63381815092738103 4.1125671801969483 235 240 255 433 229 0
-1.8088392630523886 -1.3279598256886846 3.3720287678065666 255 193 205 179 136 0
-1.8486101650543705 -1.911776750252993 3.2461792073543445 197 255 130 166 64 0
-1.9784687306672804 -0.85648111937703852 3.3522336804029207 231 236 255 157 190 0
-1.816469302461408 0.28001556230197167 3.0850653361924438 184 182 175 160 322 0
-0.034782485485090664 -0.6563711093673974 4.766027147648308 255 122 140 379 235 0
-0.25659392871695252 0.36358322532541598 0.686145429935062 119 147 255 241 490 0
-0.2521604432852671 0.40914493417984793 1.2786425551951743 255 192 195 307 412 0
-1.8102104414947444 0.10820014502213647 4.2674548424530778 255 92 111 223.200012 297.600006 1
0.81035878256240523 -0.74527938828242979 3.0673440425316127 255 220 227 483.600006 196.800003 1
-0.31129218957956173 0.32632046997955472 0.49081674829430588 255 81 111 139.200012 543.600037 1
-0.29541704728922502 0.28814627207447685 0.46370791319598148 255 90 118 139.200012 525.600037 1
-1.7559480700584507 -0.7588951301891933 3.6870086055092397 226 229 234 200.400009 207.600006 1
-2.0846671724777432 -0.90028886843187705 3.5292237483435436 230 236 255 157.200012 189.600006 1
-1.9500689886794338 -1.782025012273331 3.3927404190774255 255 150 174 163.200012 87.6000061 1
-1.7340439354522261 -0.92270986665008514 3.2679518134457064 216 222 231 180 178.800003 1
-1.9658584068040166 -0.94454722210552422 3.3490868806376719 226 233 255 157.200012 178.800003 1
-1.8299812995236389 -1.1030675958538967 3.4107703230105053 203 214 226 180 163.200012 1
-1.9968457957214616 -1.0976198778642263 3.3933273214463244 255 206 215 159.600006 163.200012 1
-1.9319946151967873 -1.3663227540238652 3.309805755694927 211 222 255 157.200012 129.600006 1
-1.1047979798049914 0.27079844967240574 3.6154399180409502 255 149 153 267.600006 315.600006 1
0.16837430154251765 0.45420003194463654 0.66667377828890673 140 163 255 481.200012 547.200012 1
-2.42231293648838 -0.28958116853436688 5.4681248088133216 106 127 255 213.600006 267.600006 1
-1.8280796515370796 -0.25398487633042449 3.3400997598040227 243 255 240 174 259.200012 1
-1.6074343993580706 -1.9765093966756653 6.0601261653202609 224 255 192 282 163.200012 1
-1.4343395779635224 -2.2358319009045236 6.6898787761452674 224 255 189 302.400024 160.800003 1
-0.55869498080521862 -0.071735662755418456 6.4439137722371775 255 103 122 351.600006 285.600006 1
-1.9211150438232436 -0.33897300406755881 3.2924061043464858 255 238 239 159.600006 249.600006 1
0.42399754402902057 -0.013630210348864753 0.87912801214131675 255 69 82 571.200012 283.200012 1
-0.31058834328797325 0.43062810153256598 1.1301770160117763 255 213 215 279.600006 435.600006 1
0.80589478011836768 -0.7626865681466044 3.1857819226598916 235 255 220 482.400024 197.280014 2
-0.53940303190640582 0.28960958731026432 1.0480083797851956 255 190 202 187.200012 393.120026 2
-1.8498322934790306 0.22476850037406354 4.03097270447262 255 110 109 207.360016 309.600006 2
-1.7078384127139667 -1.2739337405461466 3.344464365404527 255 189 204 187.200012 142.560013 2
-1.3635997095084935 -0.18486608350209691 3.5053923913192331 102 255 63 234.720016 267.839996 2
0.4372542959504333 -0.22845180280534561 0.8814170027202155 218 231 255 573.119995 187.200012 2
-1.1435746524377235 0.33991293199327388 3.5428972129595664 138 141 137 260.640015 324 2
-1.355848146852991 -2.0965850207577672 6.3016729458830962 224 255 188 302.400024 159.840012 2
-1.8882183232689047 -0.8970689798905076 3.4816698362067404 228 234 255 177.12001 188.640015 2
-1.9211150438232436 -0.33897300406755881 3.2924061043464858 255 238 239 159.840012 250.560013 2
-1.9965638161401995 -1.7511267002324395 3.3979738838127562 255 148 173 159.840012 90.7200012 2
-2.0145284281051956 -1.4944742833499611 3.4255441258975292 208 213 223 156.960007 120.960007 2
0.42079756614560282 -0.22882443139155101 0.88260180957386991 205 218 231 568.800049 188.640015 2
0.54953645967680831 -0.38891888814611969 0.9081021645506735 173 192 215 616.320007 123.840004 2
0.42387465472578922 -0.36062384575156137 0.87748606609360547 255 180 197 567.360046 129.600006 2
-0.29129280456793083 0.41210962642529492 1.0684702839249571 255 213 214 279.360016 434.880005 2
0.42210737621267092 -0.26486677556534483 0.89233405453845571 207 218 229 568.512024 172.800018 3
-0.53332411985997896 0.2866742733791901 1.0330971547529091 255 160 176 183.168015 392.256042 3
-1.7668524613649801 0.11248154083176788 4.1232303838956872 111 131 255 221.184021 297.216034 3
-1.9831288298159784 0.45700430382348889 4.7126749096888929 15 255 26 226.368027 324.864044 3
-0.11943499227253507 0.44501933082857714 1.1411427037681077 255 67 73 343.87204 437.184052 3
-1.2514685345548071 -0.72323675275309229 3.3796337955331333 88 105 127 240.192017 202.176025 3
-1.6443396491657989 -2.004147226840991 5.8886534383623257 196 209 222 276.480042 158.976013 3
-1.2245535076720029 -1.8847377900039073 5.7310648877324368 189 206 224 300.672028 160.70401 3
-1.257944988449947 -0.16659981268083809 3.273732154357234 84 102 255 233.280029 266.11203 3
-1.1842349300222201 -0.45023064340586222 3.6319657087063142 219 221 221 260.92804 240.192017 3
-1.9744707212303654 -1.1011896634770333 3.3841511187681461 227 255 205 158.976013 162.432022 3
-1.8220684900275255 -1.6383579765125031 3.1560780334102483 204 255 147 158.976013 89.8560104 3
0.51229572484007235 -0.043754740110167736 0.86985126366240273 191 255 165 606.528076 269.568024 3
0.5432895503295142 -0.38465575166372407 0.89340782494211557 255 174 192 615.16803 122.688011 3
0.42546441853947026 -0.63842764126450069 1.0769623223136751 153 196 255 537.408081 60.4800072 3
-0.29480924369038175 0.42633003881235326 0.95370463068846378 202 203 202 264.384033 457.920044 3
-0.26045985866073806 0.41953385444951508 0.64390463831060196 95 125 138 228.096024 539.136047 3
-0.51092639177078314 0.3025639352000265 0.68459859320461836 255 22 39 95.0400085 457.920044 3
-0.32665076230734535 0.31032288599632779 0.5070955683747097 131 255 94 138.240021 525.312073 3
-0.63868383166347398 0.26687062308542231 0.74276923999629907 198 197 255 53.9136086 423.014465 4
0.043085132135002535 0.39260128828142438 2.619423322283819 175 172 255 389.836853 344.217651 4
0.29662587496800419 -0.59686507096570107 4.126219918895818 212 255 125 410.572845 228.096039 4
-1.319972685474796 -0.17957948149341069 3.3951625496862268 102 255 63 234.316833 267.494446 4
-0.12460142173367283 0.4552873219071305 1.1946455542225765 65 71 88 344.217651 437.529663 4
-0.18466692853228706 0.44588752312787377 2.7372805396224398 218 255 221 358.732849 350.438446 4
-1.6651732003131743 0.3005511450798134 3.1366649133400957 143 151 167 176.256027 325.555237 4
-1.125256138102249 -0.43614431869451048 3.4638577724023611 220 220 255 261.273651 240.537628 4
-0.031881173107489946 -0.64853857505043666 4.7520944525741582 137 160 255 377.395264 234.316833 4
-1.8465388579950983 -1.0801844755345427 3.3939278114223521 205 215 227 176.256027 165.888031 4
-1.7191751769656984 -0.2153291618671283 3.3679997251790192 244 255 241 186.624023 263.347229 4
-1.8146474336197227 -1.6988880875435157 3.3320154611570874 206 255 155 174.182419 91.2384109 4
-1.918011477885432 -2.0931054767338391 3.3578801083187759 255 113 148 163.814423 49.766407 4
0.42395020175370501 -0.23060850980856284 0.88411130677040761 205 218 231 568.166504 188.697632 4
-0.2623360653098965 0.37876952870340475 0.98660875703037099 255 213 215 279.936035 435.456055 4
-0.11813651106571976 0.44368581038524857 0.7151893067662245 255 20 35 319.334442 530.841675 4
-1.2100698641064715 0.25721678540472287 3.9300347017400368 255 139 143 267.494446 313.113647 4
-0.55137332920215432 0.3175794513380007 1.0879069266640935 186 192 184 192.844833 398.131256 4
0.14729867207568204 0.44869566096001778 1.6174642199336553 211 212 211 416.793671 396.057648 4
-0.24116794319802315 0.306499770584724 1.7571575950227563 157 255 122 330.946594 358.318115 5
0.24079787288931442 -0.58199405522484993 4.7179933163064547 255 111 150 403.10791 238.878754 5
-0.1105382509526267 0.43374298973273584 1.1430841241500749 81 99 255 345.876526 432.967743 5
-0.13586768162997243 0.43677811173546122 1.2724821205060606 255 99 101 343.388214 418.037811 5
-0.17966045820488885 0.40495184343022916 2.6750786888728624 218 255 220 358.318115 348.364838 5
-0.12140148907178383 0.4494748996807606 0.72499831877158694 28 41 49 320.993317 525.035583 5
0.47357583810478965 -0.86086628319676028 4.6387843136416835 232 238 255 425.502777 213.995544 5
-1.8276657047681062 -1.072069813840326 3.3637571201347498 204 215 226 176.670746 164.229141 5
-1.9934334996002172 -1.8441979124881511 3.4577813235837978 137 167 201 164.229141 82.1145706 5
0.43223895556714709 -0.23153809383448143 0.88288106838040892 202 214 227 572.31366 189.11235 5
-1.6253644209315645 -1.9632090049047999 5.8181016978198974 197 209 222 276.203552 159.252502 5
0.42536039507983547 -0.62150786398578495 1.0453359887281355 154 196 255 537.477173 59.7196884 5
-0.2675018022074056 0.29829747071217866 0.49254229576927322 153 255 112 174.182419 522.547302 5
-0.33304072779752647 0.31349671051149908 0.51447289196516954 88 118 130 136.85762 525.035583 5
-0.26565441348965546 0.29697741911953651 0.55055577403772493 255 197 198 199.065628 495.175751 5
-1.6317041786865287 -0.20011877620161775 3.238426772512335 241 244 255 189.11235 261.273651 5
-1.9225962862355495 -0.33160875546746349 3.3238253911030342 239 242 255 161.740829 248.832031 5
-1.2760924524695425 -0.73219816899858492 3.4234499465910835 103 123 255 241.367081 204.042267 5
-1.0951550139808144 -0.41895396591679002 3.3824005922165621 220 220 255 261.273651 241.367081 5
0.31341104104305506 0.37846836046423937 0.61632475231582973 10 255 4 582.266968 522.547302 5
-0.31269177468445974 0.42580249912036727 0.97317233515518242 205 205 255 261.273651 455.36261 5
0.15017874899216543 0.45177464369625114 1.1982774658137376 255 222 223 435.456055 435.456055 5
-0.18188250774341297 0.4686705709702858 2.1668526159643413 255 189 196 355.829803 373.248047 5
-0.28707435572233586 0.30573275912160791 3.1207440100108572 217 217 255 349.360199 325.472321 6
-0.16892963669412531 0.46503131256791658 2.1251641531304397 255 189 196 355.332153 373.248077 6
0.54933479551428421 -0.36244967069038053 0.89573983941194557 215 255 171 618.098816 131.383316 6
-0.25483718061878546 0.28975413799180999 0.52890049632929448 189 191 255 197.074982 498.659424 6
-1.9582398849117459 -1.8007267646743248 3.4174855948500169 137 166 201 164.229156 80.621582 6
0.42891399924074691 -0.23583360592352665 0.87745735394635482 230 255 205 570.323059 188.117035 6
0.40938865517476841 0.031230814387347379 0.63162951864895356 255 122 152 627.056763 304.570435 6
-0.27187600267616552 0.41156917574007601 0.75325325748263161 255 77 103 247.836716 495.673431 6
-1.9389832932307094 -0.48727858473034513 4.2329197363373812 117 137 255 209.018921 238.878769 6
-1.9207915564249851 -0.33378179421340498 3.3539792972089391 239 242 255 161.243164 250.822708 6
-0.80429011655761906 -0.0042147616975882068 6.2974833944315032 122 255 81 334.430267 286.65451 6
-0.22243462452480545 -0.45778589552544446 4.3231968450587397 144 153 255 361.304138 247.836716 6
-1.1621595285075146 -0.16963235267301754 2.9916130245801691 66 88 108 232.906799 265.752625 6
-0.65822057554044022 0.37338395142820729 1.0105818328076615 255 144 157 131.383316 435.953735 6
-0.41509338578966215 0.37516244132502313 0.99827017208541036 124 139 255 229.920807 432.967773 6
-0.15660916621568211 0.51358737349884365 1.2377972597249205 34 46 63 340.402252 450.883667 6
-0.12460142173367283 0.4552873219071305 1.1946455542225765 98 255 69 346.374207 435.953735 6
-0.26397536890456608 0.40588381094553866 1.8718389859001769 255 98 108 331.444275 370.262085 6
-1.7259784379659959 0.12038490639761441 3.9933574672940111 84 102 121 220.96286 301.584442 6
-0.25651267898847063 0.3983145327732881 0.72589845248089513 255 92 113 247.239532 498.062256 7
-0.28777918081492815 0.38075899652884998 0.78858081231454813 255 200 201 247.239532 469.39679 7
-0.26844559772259036 0.29850086231791051 0.54339024444684281 196 195 255 193.491806 501.645416 7
-0.3247134299848724 0.31064890323445271 0.59966540681436631 255 199 200 175.575897 494.479065 7
-0.30091508764974595 0.4169835407459706 1.1072371975124218 255 213 213 279.488159 429.981781 7
-0.26143774148371102 0.38722132137729237 1.5009372392474836 255 119 136 315.319977 383.400421 7
0.52149512691508437 -0.48269537388820394 0.91425920791878901 168 203 255 601.974487 85.9963608 7
-1.5171472204814558 -2.1888551847199906 6.7898212436179621 189 207 224 300.987244 164.826355 7
