ply
format ascii 1.0
comment Written with hapPLY (https://github.com/nmwsharp/happly)
element vertex 97
property double x
property double y
property double z
property uchar red
property uchar green
property uchar blue
property float ix
property float iy
property uchar octave
end_header
0.65331682177132056 0.48432199969361289 1.8139307413579839 255 129 139 523 391 0
1.1038311188347028 0.50172974830888473 1.5162606721203318 255 211 213 663.600037 414.000031 1
0.41409027408507049 0.34858233336529554 2.8911561041712384 156 255 101 438.000031 333.600006 1
0.41381314562133431 -0.075018606711088509 2.5423710339757157 255 64 118 447.600006 277.200012 1
1.1925949462494434 -0.42714988038118107 1.8253710193148338 241 255 231 634.800049 200.400009 1
0.92886901975472325 0.45231386759551523 1.6609803889811321 207 255 186 598.800049 391.200012 1
1.2179868796369753 -0.042567993745540988 1.4172596376733271 255 111 141 715.200012 277.200012 1
0.54368180341981853 -0.53159193935934757 2.5595394927937853 244 255 240 466.800018 206.400009 1
-0.36445213425434009 -0.08639467588423233 0.5033558343077984 55 255 34 106.560005 223.200012 2
0.97836885844111288 0.3336443316830312 1.8341974314260678 130 255 106 590.400024 357.120026 2
1.1540908932252449 0.56384013799448496 1.4188636508590831 255 116 132 695.52002 439.200012 2
1.1328761241324559 -0.38626336175275156 1.8268090254632448 255 188 203 623.52002 207.360016 2
0.9512715313273914 -0.39651397645322262 1.5606276254457434 242 255 234 614.880005 191.520004 2
-0.21613392349866434 -0.25449781101441826 0.51032046320430435 255 108 128 223.200012 95.0400009 2
-0.46706316217522437 -0.3512470539739766 0.58979631312820002 255 97 115 79.2000046 57.6000023 2
1.1987649814840884 -0.67708086070239815 1.3852385955335649 205 223 255 717.120056 99.3600006 2
1.0393028426814244 0.36821814102939487 1.7650468366486258 178 255 131 610.559998 370.080017 2
0.76349630101577182 0.58357039816275136 2.2659220904448176 162 255 129 514.944031 387.072021 3
0.33126578767602832 0.14080338290270786 3.9772855214678984 147 166 185 416.448029 300.672028 3
0.17184500477532527 0.061375433861122125 4.6569226433704367 149 171 255 397.440033 290.304016 3
0.54209819669575987 -0.42027138878479797 2.7698531414732379 255 193 204 459.648041 228.096024 3
0.59667409120753856 -0.59010068830604889 4.0193944110500368 61 115 146 444.096039 231.552017 3
0.17542639625780931 0.61052093267693386 1.9554326451461721 140 155 176 416.448029 406.080048 3
0.40760671188620012 0.36887323084005308 3.0978699114970452 255 92 132 435.456055 333.504028 3
-0.47171545483617816 -1.3479120962569526 2.9150538879728849 162 173 255 321.40802 114.048012 3
0.83598240349711572 0.6920111383933949 2.827066130543332 255 135 148 499.392059 383.616028 3
0.22451160901326439 0.64100677356857461 1.7126540848903469 63 65 255 433.728027 432.000031 3
-0.28212079512317167 -0.39482060634360516 2.3120642498817414 178 176 255 333.504028 222.912018 3
1.1444540040209925 -0.040209779313244709 1.3169103743887511 255 113 142 715.39209 276.480042 3
0.85389111444226695 -0.6061772959391809 2.7059922145998412 241 255 229 506.304047 202.176025 3
1.1547311055540601 -0.59755438536971406 1.3046746382467909 183 203 223 724.032043 108.864014 3
0.97760684986424196 0.34777588756541777 1.6516794618009278 120 143 255 609.638489 369.100861 4
1.1510191836525152 -0.44183821793946754 1.9435569739106535 234 241 255 609.638489 203.21283 4
-0.38945682038079621 -0.031306325983646466 0.48978321632599764 166 255 129 78.796814 263.347229 4
0.31339564935053765 0.1195208199670634 3.4475688009158629 188 255 152 414.720062 302.745636 4
0.14698396174211892 0.046267821468313403 5.161020238707934 255 121 160 391.910461 292.377655 4
1.0725359788200539 0.60588937834762469 1.511148186132063 20 35 255 657.331299 441.676849 4
0.35656450942444584 0.40291670349123593 3.7229895050397799 255 123 144 423.014465 329.702454 4
0.85159783885901419 0.400539829065089 1.5568440937389054 183 255 135 590.976074 383.616058 4
0.21616729936773238 0.61379848059776987 1.6175452476782901 59 61 255 433.382446 433.382446 4
0.7061386402769414 0.58265816713297225 2.355642591881864 255 135 148 499.737671 383.616058 4
-0.24634839684373944 -0.026590177646845542 0.47365340899453612 113 132 160 184.55043 267.494446 4
-0.73198557800046737 -1.6732191446592264 2.6173356496775835 255 21 66 279.936035 39.398407 4
-0.44624140444334737 -1.8366973413669649 3.1832842643703367 188 186 255 329.702454 66.3552094 4
-0.36275118208611978 -0.27035580618711619 0.49894531992570101 86 105 255 105.753616 82.9440155 4
1.1104961102455504 -0.49727319383890678 1.8897130576153982 255 231 235 607.56488 188.697632 4
1.1537193498112783 -0.044722360876143896 1.3173039254391314 144 179 255 717.465698 275.788849 4
0.56436359188678931 0.62465719693024435 3.2470507824152666 255 113 144 455.36261 363.294769 5
0.97620168333478741 0.33021101972215783 1.8372678569251253 119 139 255 589.731934 355.829803 5
1.1404483955089268 0.49096371672663713 1.3522068025989347 168 255 129 706.682983 427.991089 5
-0.41716193095661591 -0.89826017245921719 2.9445292705236872 176 174 255 333.434937 174.182419 5
-0.15258524576011467 0.48054987583810038 2.2241298215001075 173 255 167 358.318115 368.271423 5
1.1227502513514007 0.57943110053802294 1.5885662541631831 255 130 140 659.404907 425.502777 5
0.20342576247234412 0.59739320646799099 1.5696925952162948 255 79 84 435.456055 430.479431 5
1.1913217364990027 -0.41331084253751316 1.8219587187193298 226 233 240 632.033386 204.042267 5
0.55637564834009146 -0.49383934320284695 2.8842643540577928 184 203 255 457.850952 218.972198 5
19.005146948789658 -31.220395228196207 58.431929707001729 220 255 175 510.105682 84.60289 5
-0.25346102347747745 -0.029178582212853355 0.48973655585531395 168 255 119 186.624023 266.250275 5
-0.43068710947393996 -1.8148418409418428 3.1148187252272761 182 255 179 330.946594 64.6963272 5
-0.24868728140151264 -0.24398583856123335 0.48417648394037505 109 127 153 184.135712 94.5561752 5
-0.19825540729505819 0.2044441305316248 0.48451115861027061 255 84 109 231.413788 447.897675 5
1.0554449818727862 -0.47176415944561922 1.7622000483711941 236 241 255 609.638489 189.11235 5
0.81537968325747379 -0.28031342984746727 2.4402725839759336 241 244 247 512.593994 243.855392 5
0.54198617925499204 -0.50547276178466194 2.8709290922130037 150 174 194 456.855652 217.976868 6
0.48878563951505338 -0.4516044821033689 3.1313333318093663 57 110 141 444.911713 226.93483 6
0.7646046546109786 0.5770016596469143 2.2848167752896176 147 166 255 513.589355 385.192017 6
1.1987140723630505 -0.42349842986093733 1.8884485720584641 255 229 235 627.056763 203.046951 6
0.30866764117225798 0.53727021766319993 1.6057827783735821 114 124 140 456.855652 412.065857 6
0.44840129573171428 0.64572435695569597 1.8245280093205238 116 135 255 477.757538 426.995789 6
1.0557892168666037 0.25092718269848191 1.8723827903858483 255 116 129 603.168884 343.388214 6
-0.43946967816867932 0.28975439058733743 0.52470765826011778 228 229 229 56.7337074 504.631378 6
0.80535519586414273 -0.60198640040301976 2.7239167926517807 229 235 241 504.631378 203.046951 6
-0.24709689578896299 -0.037039136554717855 0.59031147378632776 138 167 255 217.976868 268.738617 6
-0.19241356892409156 -0.06222398033671106 0.49881813667709451 255 122 142 235.892776 235.892776 6
1.0145346579079297 -0.22601816704525396 1.7281922742033364 106 125 148 612.126831 235.892776 6
-0.20381131928304175 -0.24438556807157696 0.4825029613634868 107 127 155 220.96286 95.551506 6
-0.067877376029835901 0.070913999098590613 1.8716097953602135 158 255 157 370.262085 304.570435 6
0.16074628947152414 0.56875697753377141 2.230913132525103 123 255 75 418.037842 388.177979 6
1.0774671358955143 0.55378145143049617 1.5169224934498882 131 140 163 656.916626 426.995789 6
-0.11880326510296157 0.67170045747043483 1.7201344125463258 166 178 174 352.346191 438.939728 6
27.630170406679781 -28.819120636895427 71.355868974530267 255 202 215 531.505249 134.369308 6
0.81537968325747379 -0.28031342984746727 2.4402725839759336 243 246 255 513.589355 241.864746 6
-0.24618594386484371 0.652582443131972 3.2458098993401689 176 255 167 354.734985 369.067719 7
1.1672739123596898 0.55760161597621782 1.6415851943352493 255 129 142 655.722229 426.398621 7
0.7888509609908041 -0.57864341537837705 2.5780938387774857 235 242 255 501.645416 204.241348 7
0.79455594326819456 -0.28050299763240943 2.3488933101448737 241 243 246 512.394958 240.073166 7
-0.21601491718832477 -0.25311718299611341 0.52083716959153215 158 255 110 218.574081 96.745903 7
0.39520339431422791 0.36613719636964415 3.4795384198134194 185 255 140 426.398621 322.486359 7
0.14309559624778623 0.0574656909861892 4.982369396764053 171 255 131 394.149963 293.820892 7
-0.073528903444085358 0.074966957680279583 1.903763124026157 167 161 255 369.067719 304.570435 7
0.53404854032262805 -0.49334871980076234 3.2160172696294902 255 68 121 447.897705 229.323624 7
-0.53162316074579907 -1.3903948187874635 2.9748505238650802 149 161 176 308.153625 111.078629 7
0.09522458815296142 0.64541366970194058 1.36648936373801 219 218 216 412.065887 462.230438 7
0.62034419279119346 0.68760971544338745 3.6796993631121424 255 52 112 451.480896 361.901337 7
0.98417664261021343 -0.51727737578476229 2.3606565937036095 225 233 241 548.226807 204.241348 7
1.1222920818046127 -0.52227688536637995 1.9131459340168515 236 241 255 609.140869 189.90863 7
0.084371447952590106 0.7349804469859762 1.7896540547267339 128 149 255 401.316345 447.897705 7
