ply
format ascii 1.0
comment Written with hapPLY (https://github.com/nmwsharp/happly)
element vertex 175
property double x
property double y
property double z
property uchar red
property uchar green
property uchar blue
property float ix
property float iy
property uchar octave
end_header
0.57732804508506819 0.34397797657870988 1.406797646116182 59 79 255 541 383 0
0.70255477552878953 0.075457539466947346 1.6662506260826868 255 41 52 547 307 0
-0.14433350068720402 0.41365385462274651 0.65685099140385705 174 174 255 301 529 0
-0.2759455690296746 0.39366139576744541 0.65955509068482687 255 167 175 223 517 0
0.21039493633670042 0.18425911053898467 0.53906699173455364 255 180 182 535 418 0
0.73534466343749771 -0.064457980895557654 0.94972357696223186 240 255 237 682 262 0
-2.362707476529732 -1.3022488308105917 3.6382032655781762 196 211 255 133 151 0
1.0303493623195257 0.15453559961553304 4.1039439468868881 114 137 255 481 304 0
0.67898588593046361 0.39343126742584539 1.0249842644642624 99 112 135 640 437 0
0.74831052227268458 0.23368862029641888 0.87548926234921531 13 30 28 712 391 0
0.80994362718571655 -0.010301215097805974 0.87325294580620527 101 255 79 742 283 0
0.78590412712336954 -0.059793468284592713 0.87929747380410272 255 193 197 727 262 0
-0.32351415437056052 -0.53247543338624403 1.3739113386207338 140 168 200 292 139 0
1.3412072258831282 -0.17463341870751847 5.1420051556920283 54 72 97 484 274 0
0.76929610607198962 0.31850254505172654 0.87530890221753632 206 202 255 721 427 0
0.45601117853407785 0.40153179929487259 0.63080866332895258 90 110 255 661 532 0
0.74068040074259933 0.10488099968623295 0.94415925704069525 119 138 255 685 331 0
0.76984355611005606 0.3189191272656392 0.87931098555266196 181 184 185 720 427.200012 1
0.67380677730621863 0.39005040246500527 1.0120111577555424 255 109 122 639.600037 436.800018 1
-0.0087375231110524698 0.37269338134503832 0.57435659109239234 255 170 162 379.200012 537.600037 1
0.6091207659521749 -0.89642755070316094 3.4846536095966067 255 25 74 451.200012 189.600006 1
-2.4336459391685206 -1.1040326097665045 3.7411875955341136 225 255 217 134.400009 175.200012 1
0.80222888116506774 -0.18483735255880748 3.6191575440463781 98 117 255 469.200012 267.600006 1
0.14509623251004217 -0.85744098129678892 3.8137146374358575 255 45 98 399.600006 201.600006 1
0.78993918126243567 -0.059545088653740523 0.88377574601192821 255 196 200 727.200012 261.600006 1
-0.22995043109298385 -0.25184702059651065 1.2825573077618091 255 211 218 315.600006 213.600006 1
-0.25589364741177578 -0.25943192011780591 1.3163111975429449 220 228 255 309.600006 213.600006 1
1.4728527279978954 0.18536554029881755 5.3230313774295865 93 255 60 490.800018 303.600006 1
0.76621066134505378 0.14735090446533089 0.87462252227277826 196 194 255 721.200012 351.600006 1
0.14888848011279837 0.18733046029198505 0.50662274892917503 175 255 194 494.400024 430.800018 1
-2.7423772693602362 -0.30777866324424247 4.1032173782329835 232 233 236 128.400009 259.200012 1
-0.15497419747318475 -0.067134323582188682 1.2707459368853258 92 117 255 337.200012 267.600006 1
-1.9758399887746916 -0.6874817593761462 3.8785520511902067 205 206 255 189.600006 219.600006 1
-2.6738151224178077 -0.40087283013557878 4.0545340504401031 230 235 255 133.200012 249.600006 1
-0.32110477955194749 -0.53056192912893141 1.3650095156408482 255 139 167 291.600006 138 1
-2.7619121951285677 -2.6866250414963657 4.1392411062476091 119 163 255 129.600006 37.2000008 1
-2.6684883361123179 -1.8481402621845222 3.8842196823083017 171 181 200 120.000008 104.400002 1
0.2789734961697925 -0.5617324297029771 3.4800306672442134 101 255 23 414.000031 225.600006 1
1.1893144051752249 -0.17311329989228164 4.4980910848753162 255 66 86 483.600006 273.600006 1
0.71688991214522191 -0.15232803393451705 1.6202832807266307 38 44 255 553.200012 252.000015 1
-0.31187351476437852 0.19287431652544207 0.47097732085280763 169 164 255 129.600006 447.600006 1
0.48017107341158694 0.41783933635073583 0.67227939625573996 73 90 104 660 526.800049 1
0.053852876902716229 0.21645182950601294 1.7523579536061757 79 105 255 397.200012 333.600006 1
0.56180053814370967 0.37338942484413984 0.91045108257326635 255 109 120 619.200012 444.960022 2
-2.3283477173550327 -1.2812309724949908 3.7026435719003721 195 211 255 141.12001 154.080002 2
-2.4654763687310712 -1.3302725412565519 3.5560478369365511 184 194 210 116.640007 144 2
-0.33224328496301681 0.320363395866884 0.68386177935447623 168 255 179 198.720001 469.440033 2
-0.30678848213288346 0.24255828661924531 0.5321553781549142 172 255 174 162.720001 465.120026 2
-2.4204676333235033 -2.1601936824202612 3.5155973116699468 167 255 91 118.080002 51.840004 2
0.74938842026451757 0.23473738386640772 0.87841050501064621 255 13 31 711.360046 390.240021 2
-0.053222472510890739 0.24618129263814631 1.339456670809744 255 156 165 367.200012 361.440002 2
0.045281342603461505 0.34993356656119001 0.61570919989009409 185 187 186 408.960022 505.440033 2
-1.8038046815505986 -0.59350943199337813 3.8493352493459003 210 210 255 205.920013 228.960007 2
-0.25191172100751502 -0.21988739500556889 1.2885368635778016 217 230 255 309.600006 223.200012 2
-2.5912274463309708 -0.93590876294372294 3.9546756559348708 218 221 227 132.480011 195.840012 2
-2.5719470073622794 -1.0914770275209995 3.7051998501397865 223 224 228 116.640007 172.800003 2
-2.1932089045223448 -0.22573876102347934 3.5102062588640495 235 238 255 141.12001 264.960022 2
-2.7029326074426185 -0.38728310512219782 3.8776182833761261 255 228 231 115.200005 250.560013 2
-2.5372194821141174 -1.7682070971568735 3.7133834744823093 255 175 184 119.520004 105.120003 2
0.65975806597712006 -0.069025231366874107 0.91679921655710406 239 255 236 658.080017 257.76001 2
0.59217584981695892 -0.90842252860039563 3.4653167541835366 112 255 22 450.720032 190.080002 2
0.19089785018709826 -1.3361516722716091 6.0803990201304083 128 255 46 398.880005 201.600006 2
0.81454366517201404 -0.18904660339589358 3.7001838921195951 98 117 255 469.440033 267.839996 2
0.74689253683241552 -0.14690186815796274 1.7683256763237107 32 43 51 548.640015 256.320007 2
-0.27280986601285451 0.39852616798093021 0.65463868926843172 255 168 176 223.200012 521.280029 2
-0.27878805577077792 0.42136331990718212 0.81702722422211793 46 58 79 256.320007 486.720032 2
-0.051289338566642417 0.38079555528808662 0.59509384973395307 169 172 173 348.480011 531.360046 2
-0.13411535732755719 0.40340077162549193 0.64398603089706585 171 173 172 300.960022 528.480042 2
-0.2473420249105226 0.14349730578920131 1.0932269641395649 134 255 87 298.080017 338.400024 2
-0.1480790532789365 0.26921959997542311 1.0832668874069562 164 173 178 332.640015 384.480011 2
-0.31013503374458273 0.16042726370715776 0.47082456786877813 156 159 255 129.600006 419.040009 2
0.82814457461685775 0.40358414111356622 1.5934342622555597 255 217 217 583.200012 384.480011 2
0.76322416099116952 0.19139835994101215 0.8743503561481516 132 255 76 718.560059 372.960022 2
0.66442028900399563 0.17161779954886694 0.92593718458151775 121 255 78 658.080017 360 2
0.16418421636428857 0.19279157315552364 0.74364971971330618 140 148 159 468.288055 387.072021 3
0.42439597234125448 0.29252329798380783 2.3451882411403 255 19 64 451.008057 336.960022 3
0.78709644237820664 -0.05696435497953687 0.87780950143716818 255 193 197 727.488098 262.656036 3
-0.31789181018192192 0.33188870272635745 0.64204751475707733 165 255 159 190.080017 485.568054 3
-0.25201977212579663 -0.26522734028229356 1.3344721862432893 221 229 255 309.312042 212.544022 3
0.78860946656620801 -0.19055271374980623 3.513089110164604 133 255 55 470.016052 266.11203 3
-0.33374011870463927 0.080522078788460835 0.68620582402997843 80 255 54 198.720016 333.504028 3
-0.15856725362857726 0.27043955537187769 0.91826211745614372 180 181 255 317.952026 400.896027 3
-0.23474976975904116 7.2443376726002984e-05 0.61395441149612895 33 35 48 240.192017 286.848022 3
-2.623049766524554 -1.1233398818577252 3.7816636095201104 224 228 255 117.504013 172.800018 3
-0.33548247490028038 -0.50681232911367258 1.335693097117596 201 255 142 286.848022 141.696014 3
0.6722489405450347 -0.097996568104448442 0.94517224884039908 237 255 231 658.368042 247.104019 3
0.42287381140450764 -0.87503951946872649 3.4731406379395335 69 101 255 433.728027 193.536011 3
0.15838483581383467 -0.72554844886788317 3.3588899894531616 255 45 97 399.16803 202.176025 3
0.2877007618627544 -0.93101416146707561 3.5457116595931786 113 255 28 414.720032 188.35202 3
0.72247760054168086 -0.1257018879575261 1.5883269684407857 106 255 62 558.144043 257.472015 3
0.71266815337492839 -0.13689123356265573 1.6723168315839358 255 25 35 547.776062 255.744019 3
-0.25735893122248599 0.41291261605107304 0.96471522978625246 86 109 255 281.664032 452.736053 3
-0.27611348922892542 0.39895508183715728 0.65558440073028701 172 255 163 222.912018 520.128052 3
-0.1444751748311352 0.42105259477422619 0.68088903182969995 169 170 169 300.672028 527.040039 3
0.47967415581975781 0.41767610631201602 0.67291517985966842 104 255 82 658.368042 525.312073 3
0.63081725710801884 0.41901079523280582 0.78241489207132442 136 137 132 696.384094 494.208038 3
0.73521694937076543 0.18359954349457455 0.84100034045462491 97 102 255 717.120056 371.52005 3
0.71108128935595549 0.070702665483916433 1.7369527118225137 20 26 33 544.320068 302.400024 3
-0.32793782722427633 0.081364281394750104 0.6784137153565184 255 50 67 199.065628 333.84964 4
-0.095478137976462873 0.29680819435160344 1.6840957722955905 173 178 178 360.806458 358.732849 4
-0.11095817146758435 0.28672790288254729 1.0000849644923706 170 176 176 344.217651 398.131256 4
-2.6467939573822141 -1.165702681921353 4.0026095970497986 227 255 220 130.636826 176.256027 4
-0.18041563859610477 -0.57982404657007236 1.369773207929329 160 195 255 333.84964 124.416016 4
0.73865006283452228 -0.01200683504850502 0.84471637363340979 238 241 255 717.465698 282.009644 4
0.72107793312238622 -0.14085349150326956 0.88632761784985092 223 227 233 696.729675 228.096039 4
0.78842269040447355 -0.18320603706520303 3.5297240422636764 53 92 113 468.633667 267.494446 4
0.74771778199650951 -0.14788394707008196 1.7718768470608659 255 25 35 547.430481 255.052841 4
-0.26908143610126134 0.4125653602177981 0.80258066295923713 61 83 255 257.126434 487.296082 4
-0.15240494257269765 0.42872001671855742 0.6921011043399139 167 168 166 300.672028 526.694458 4
-0.31004286733903363 0.37578837994621644 0.5787492177299951 157 255 156 178.32962 534.988892 4
0.65294976411754835 0.37873833305655652 0.98167654911206648 114 126 148 636.595276 435.456055 4
0.47948052668537167 0.41761078448719169 0.67380234799201943 255 75 88 659.404907 526.694458 4
0.71189294840626927 0.061344074148452166 1.7083669023519981 46 56 255 545.356873 304.819244 4
0.45234399122356372 0.39014846161838979 1.4084838634593273 93 123 255 505.958466 396.057648 4
0.57281446262493096 0.33053242884637551 1.37128159345861 255 65 74 543.283264 379.468842 4
-0.33607335207545819 -0.51102188847434349 1.3417122409091198 202 255 144 286.15683 143.078415 4
-2.4731150635850434 -0.34753323457644703 3.5884941217300126 235 255 228 118.195213 250.90564 4
-3.1973626801646491 -0.63488017188755019 5.6940594374019655 87 255 51 174.182419 243.855392 5
-2.680532151593884 -0.65565992493832193 4.9762515944927754 77 95 255 181.647385 236.390427 5
0.33171197725280549 0.35018206874867319 1.581073309209323 66 82 255 465.315918 368.271423 5
0.91786148055836692 0.084119573908981199 3.1525360882662747 114 255 81 490.199097 298.59845 5
-2.8435972714993119 -2.522099876190615 4.0891129132296173 92 125 168 116.951057 52.2547264 5
-0.17924152291075734 -0.54711288925737334 1.4086619635588307 199 255 138 338.41156 136.85762 5
-2.7558729703702101 -1.9375404073247753 4.0130742663286085 255 168 179 119.439377 102.021133 5
-0.1242238124370334 -0.71047736328477074 3.9729164896567051 126 255 65 370.759735 218.972198 5
0.73331743416174333 -0.14888424185500021 1.7231419532004819 46 53 255 549.918823 256.296997 5
-0.3087357825267345 0.32163048177564713 1.3140297341775096 134 255 87 298.59845 383.201324 5
0.66448894437201733 0.37584192287335633 0.93162634865577942 103 118 141 656.916565 442.921021 5
-0.26073220784901885 0.37316733565948834 1.1130369202647734 136 255 90 298.59845 413.061188 5
-2.8729309626598134 -1.2563660925807747 4.3212299963828853 221 227 255 129.392654 176.670746 5
-0.050992681778675109 0.3127808113449051 0.58842913498991101 255 78 91 355.829803 490.199097 5
0.71046356670008493 -0.11598801520735008 0.94204007998265826 236 255 229 674.334839 241.367081 5
0.15870944264676073 -0.74333120456474844 3.450112501375032 43 96 127 400.619568 201.553955 5
0.27692526793492361 -0.88905129167391816 3.436629832767339 255 26 77 415.5495 189.11235 5
0.77506382048630562 -0.19935406476928177 3.4286583158054862 133 255 55 470.292542 266.250275 5
0.16848197620832367 0.21487965452245067 0.51391977333610472 187 255 187 510.105682 447.897675 5
0.69329034962996261 0.32658382391251994 1.0113958534012792 216 216 255 649.451599 410.572845 5
0.45539794927889893 0.3882304777217902 1.4053291585815229 255 80 97 507.61734 393.154602 5
-0.17675776205419447 0.40076898178639098 0.90356236246051014 255 163 170 311.040039 457.850952 5
0.44702102023085782 0.30163735592838198 2.4774965995906135 16 67 92 452.874298 335.923248 5
-0.28455146557533528 0.40241332779858241 0.6668829942307769 152 162 161 220.96286 516.575317 6
-0.20171399535168888 -0.61797282252635888 1.4618979270053367 195 255 131 334.430267 125.411354 6
0.7994946521367714 0.034263435404749937 1.4835040493227196 50 61 80 588.238953 298.59845 6
-0.2283702411351618 0.38149092658565809 0.89866176296863609 255 75 86 283.668549 450.883667 6
-0.25112236578658387 0.36136880088275791 1.092591193898478 255 83 94 295.612457 415.051849 6
-0.23648851246266411 -0.25824470722517789 1.2768862917532133 229 255 216 310.542389 209.018921 6
0.0036011456250135687 0.33948548312333648 0.57080896330567632 185 170 163 388.177979 516.575317 6
0.71608642381224041 -0.13829027178153114 1.6612478593118225 46 53 255 549.421143 256.794678 6
0.77934029033119123 -0.12568064932680467 1.7252700805384411 108 255 64 558.379089 259.78067 6
0.6684688613151073 0.38277876948409661 1.0053548344177401 255 103 112 639.000671 429.981781 6
0.8941307547888413 -1.0232087499386844 4.5832250143138058 105 255 38 462.827606 203.046951 6
0.16093538479003622 -0.87532373703892108 4.0363377429927363 86 116 255 397.135956 206.032928 6
0.27503413411662325 -1.0053065242504657 3.9266397252413734 21 68 102 412.065857 191.103012 6
0.47490862593059568 0.3405387863590274 2.7119478358100273 98 255 13 450.883667 334.430267 6
-2.1918123513461589 -0.55822541392797365 4.1211936027851532 255 58 72 179.159073 235.892776 6
-2.5612678292337909 -0.6076021728673261 4.7605272116229642 61 85 255 173.187103 244.850739 6
-0.32946567643043423 0.35939644994347247 0.6092849728444697 255 154 158 179.159073 510.603363 6
1.0211868016190637 0.096780637112308138 3.5224060328840041 72 82 105 492.687439 301.584442 6
-0.15329301338546181 0.26407572579633498 0.92438625114554873 174 255 169 322.486328 400.121918 6
-0.21297097576036417 0.21909809250822765 1.0217801227213255 135 255 88 298.59845 373.248077 6
-0.25369763106794674 0.0063434117160359738 1.0219165612401446 121 119 255 289.640503 289.640503 6
-2.6594627175485517 -1.171024897986144 4.0072165619630642 255 219 221 131.383316 176.173096 6
-0.087435853109868455 0.14184044275433369 1.9310766517124922 183 188 255 361.901337 318.903168 7
0.86055768645873476 0.2671452493186961 1.4222775901087228 193 195 195 612.72406 365.484528 7
0.68054849668290063 0.39421178667864282 0.98474136756614739 91 103 127 644.972717 440.731354 7
0.65198250832144944 0.3724436968330071 0.98147412916782706 112 132 255 637.806335 429.981781 7
-0.34136636227119277 0.19149276857999034 0.64973323756903845 255 174 178 179.159088 394.149963 7
0.14313778545673847 0.11130282770941791 2.3146814875212365 19 73 99 408.482697 311.736786 7
0.15356587921107193 -0.84283162069104967 3.9089292730744529 91 121 255 397.733154 207.824539 7
0.60981654029447763 -0.92164053243870714 3.6433381240306835 255 22 72 451.480896 193.491806 7
-0.16088553572947273 0.2712649528312473 0.93664958600242898 174 255 164 322.486359 401.316345 7
0.7221353345206718 0.058292080463922209 1.7993602555667234 34 36 255 541.060425 300.987244 7
1.1330482584844297 0.10366285620026963 4.0180297794162261 103 255 62 490.895874 300.987244 7
0.66898988802692061 -0.16564114986525816 2.8375139347699077 90 113 255 469.39679 265.155426 7
-2.6040567099480643 -1.1231411586531497 3.9196297468646355 221 223 227 128.994537 175.575897 7
