ply
format ascii 1.0
comment Written with hapPLY (https://github.com/nmwsharp/happly)
element vertex 172
property double x
property double y
property double z
property uchar red
property uchar green
property uchar blue
property float ix
property float iy
property uchar octave
end_header
-1.5453593856597316 -0.8412918008454614 3.0225199071663758 255 224 229 187 181 0
-1.6274905441360286 -1.0427695843741427 3.1385637607072616 255 209 219 187 160 0
-1.5710553152932341 -1.5112038830022438 3.0604359158162877 255 175 194 187 100 0
-1.8329100847005484 -1.5672341852026628 3.1943389944354967 255 181 198 163 100 0
-0.40470806784480962 0.46622347459527158 1.6155637161936838 96 127 134 288 400 0
-1.6178773753497731 0.050985329090689403 3.1232940933423077 255 241 244 187 295 0
-1.5889326994658663 -1.3803683356828182 3.1004072306097248 255 182 201 187 118 0
-1.5416342022490594 0.12171785681281432 3.8779858756815431 108 126 146 232 301 0
-1.7302645902122595 -0.032609386662524414 3.0423318282009952 247 255 245 166 283 0
-1.5560018361649899 -0.7539710009190298 3.4303718951002002 255 188 197 211 205 0
-0.084246871348739427 0.31601711984707692 0.80230610748662667 255 220 221 343 439 0
-0.07759937427306185 0.44132320169034212 0.81191608783113756 215 214 255 349 497 0
-1.525985386950846 -1.1371685639543512 2.9932793067275485 255 199 212 187.200012 141.600006 1
-1.5625718175630654 -1.2964694302949522 3.0419674325043426 255 183 201 187.200012 124.800003 1
-1.7865463062289391 -1.327777414743486 3.1234687634010694 217 227 255 165.600006 123.600006 1
1.4886806751940198 -0.85788681975167724 2.7830834870823371 231 255 202 590.400024 169.200012 1
-0.86614068922308718 0.28508930811419947 0.98158348745891955 117 117 255 45.6000023 399.600006 1
-1.5843482905040878 -1.8980997352348705 3.0398739281279878 255 127 161 183.600006 49.2000008 1
-1.6394429736028195 -1.9022164531329537 2.9751121339529556 255 124 159 171.600006 43.2000008 1
-1.7442833366637678 -2.038349107750534 3.0782218598708879 157 197 255 165.600006 33.6000023 1
-1.7973436953749626 -0.9463998966354179 3.1289207064823947 255 219 225 163.200012 171.600006 1
-1.7420636509433223 -1.0683112653025169 3.0552263816329295 218 229 255 165.600006 153.600006 1
-0.36656007591687434 0.42513204116818637 1.4716252856803393 122 129 255 285.600006 399.600006 1
-1.6376976301605173 -1.4980163908875295 3.1044933140238249 217 255 178 182.400009 103.200005 1
-1.5710553152932341 -1.5112038830022438 3.0604359158162877 255 175 194 187.200012 99.6000061 1
-1.7742453983252475 -1.5299365776831293 3.0966230690844561 255 177 195 163.200012 99.6000061 1
-0.046338025408250161 0.44881346568023772 1.3599473941421043 216 192 255 369.600006 412.800018 1
-1.8051592551126179 -0.3343881137972074 3.1440955935335708 245 255 240 162 247.200012 1
0.077588479922618525 0.48103676401516099 2.4745574523730971 222 217 255 393.600006 361.200012 1
-0.066099527913854761 0.40153942719247704 3.0215256109960533 255 203 215 375.600006 337.200012 1
-1.610735859821252 -0.23669007587426955 3.0539626509111253 244 245 255 181.200012 258 1
-1.2182977925481087 -2.2227279851256436 6.4183805110695138 193 211 228 312 154.800003 1
-0.86923109171457202 -0.40993293594185248 3.1046368059004483 228 228 255 277.200012 237.600006 1
-0.041918868813068055 -0.76082666560915513 5.5652504817374044 163 159 255 381.600006 235.200012 1
-1.5723508755729649 -0.76216572421128248 3.0623549608734897 255 230 234 187.200012 193.200012 1
-1.7331095241691736 -1.7665303498735307 3.1065012462932615 207 255 148 170.400009 69.6000061 1
-0.17629201268051009 0.33288951010215939 0.73707240604884006 224 224 223 292.800018 459.600006 1
-0.07759937427306185 0.44132320169034212 0.81191608783113756 214 212 255 349.200012 496.800018 1
-0.64199772832966251 0.35731064127198514 1.2542153289265512 255 100 126 187.200012 399.600006 1
0.53605524350715594 0.076606024505094933 0.61113586433125477 157 179 255 721.200012 337.200012 1
0.55078239910562754 0.14822527000795072 0.61444912708500055 133 150 172 728.640015 380.160004 2
0.54539598327334426 0.11243864045270438 0.61269097161687891 255 138 157 727.200012 358.560028 2
-1.0979422084524773 -0.15876728611356933 3.1101504734540613 255 72 91 247.680008 267.839996 2
-2.2115570411471888 0.58065478780687596 3.3478160349002755 255 88 115 131.040009 355.680023 2
-0.84705384033990283 0.38111606727157854 1.1682361330740101 136 147 255 105.120003 411.840027 2
-0.04478230817224671 0.41366042825881411 1.2488207033095486 195 255 210 370.080017 411.840027 2
-1.9043042981359388 -0.9005230400521218 3.300687360004714 237 255 228 162.720001 182.880005 2
-1.5249472816854346 -0.90811285196945657 2.9938014471488135 255 217 224 187.200012 171.360001 2
-1.791642128431012 -1.0333096197101124 3.1210401969550561 209 219 231 164.160004 159.840012 2
-1.0759450630056859 -0.55915158569582235 3.1627330635374116 115 133 255 253.440002 220.320007 2
-1.5531266675005302 0.29188827535128076 2.7352075431886052 255 215 208 167.040009 329.76001 2
-1.6205563393495557 -0.3303138255074341 3.119944799120947 241 245 255 185.76001 247.680008 2
-1.7133477584994732 -0.32214285468594961 3.0192366680941896 245 255 240 162.720001 247.680008 2
-1.8252931588431189 -0.4872138451938941 3.1748515012216219 239 241 243 164.160004 228.960007 2
0.54500303305814501 0.25415977872417012 0.60952348062111983 255 92 110 727.200012 449.280029 2
-1.7062518062886687 -0.072419201251624779 3.2222772768779047 245 247 255 181.440002 279.360016 2
-1.5017254522845178 -0.19667461785823012 3.0816849254563179 255 243 244 195.840012 263.52002 2
-0.070601167801034315 0.32995035700430264 2.7909764000359476 255 212 214 375.840027 331.200012 2
-1.1104473745631367 -0.67372402943501086 3.1167425089867873 109 134 255 249.12001 204.480011 2
-1.0175855910463265 -1.4313674257926239 5.0823178206759403 233 255 210 306.720001 180 2
-0.046218017979758219 -0.75320885931116843 5.4642111307805266 163 159 255 381.600006 234.720016 2
-1.4222016455616986 -0.12089247809031217 1.5510437844737504 187 255 186 30.2400017 256.320007 2
-1.6136948490726648 -1.6631610213445966 2.9146064433572931 175 206 255 169.920013 69.1200027 2
-1.6701491556485655 -2.0327966760631169 3.012476425476498 255 123 156 171.360001 30.2400017 2
-1.7554210350214721 -1.3721212488632508 3.0796762174045043 204 213 224 164.160004 116.640007 2
0.54848187297978912 -0.094710576243065669 0.58942954138735959 198 255 169 738.720032 224.640015 2
-0.48429934786199125 0.30737592843587658 0.53438260289940498 98 110 129 36 505.440033 2
0.56533510651578434 0.41383695573504492 0.62186082029929457 255 6 0 731.52002 545.76001 2
0.36438452618689865 0.44558807239437209 1.3870099196804175 255 135 149 483.840027 411.840027 2
-1.4403858547555188 -2.0042724846702114 5.6424756908945364 223 226 255 285.120026 151.200012 2
-1.0979422084524773 -0.15876728611356933 3.1101504734540613 87 108 255 245.376022 266.11203 3
0.18938593933085945 0.45472156230117144 1.2547626063422457 206 207 209 440.640045 428.544037 3
-0.85391344884988163 -0.53007039579522452 3.0200257674533555 229 230 230 276.480042 221.184021 3
-1.0803604684354635 -0.64848816358670835 3.1656823272554626 161 255 99 254.016022 210.816025 3
-1.0352667073541069 -0.7105642036206874 3.0791347137488598 95 112 133 252.288025 198.720016 3
0.14359490955558063 0.45335105661995573 0.77906312965197322 144 147 150 452.736053 514.944031 3
-1.4711567313891547 0.42391738502947318 2.3016013768848689 106 124 255 141.696014 359.424042 3
-1.6738825572691627 0.24892293111246189 3.822001378814222 107 126 255 217.728027 312.768036 3
-1.5270491586277091 0.12546149519772648 3.804480460545701 255 105 123 231.552017 300.672028 3
-1.5017254522845178 -0.19667461785823012 3.0816849254563179 255 243 244 195.264023 262.656036 3
-0.06609989062012489 0.33265615583189445 2.8696606699034288 182 255 175 374.976044 330.048035 3
-1.7169141200330129 -0.31720176004402251 3.0534407780151436 240 242 245 164.160019 248.832031 3
0.55025311735859561 -0.11318553808537832 0.62048746621309658 255 96 111 727.488098 216.000015 3
-0.21926694940048996 0.45103847376828321 0.83977263610922215 209 255 215 286.848022 492.480042 3
-0.49125409311167623 0.30757614353076829 0.54301799244525273 152 255 132 34.5600052 506.304047 3
-1.1086589340453523 -2.0484303502581618 5.9082050736884479 255 194 211 311.040039 155.52002 3
0.022889262599993465 0.47755323604357858 2.5615462241457854 222 219 255 389.836853 358.732849 4
0.31623660490770811 -0.3584406711498343 3.3736035843067098 200 255 178 418.867249 248.832031 4
0.1732840481679252 -0.64423224687212477 4.5417483060140809 155 176 255 393.98407 232.243225 4
-1.7084634924312709 0.39076748721087834 3.3468568632289566 152 148 151 184.55043 329.702454 4
-0.047983491442579851 0.30687627688389207 2.6023424599196776 255 125 137 375.321655 329.702454 4
-0.63643298677053961 0.38243991505099351 2.8366350565725114 181 191 202 296.524841 340.070435 4
-1.4734200285142061 0.13370756284033414 3.6872743892773459 142 255 105 230.169632 300.672028 4
-1.1404756247573018 -0.16675944036146484 3.2086592412281236 109 255 69 246.758438 265.420837 4
-0.87887944267424123 -0.40806707385349106 3.1226270917181824 255 225 227 275.788849 238.464035 4
-0.494184161528614 -0.10841163619720512 7.2455138036992004 93 114 134 356.659241 282.009644 4
-1.5346797420075515 -0.70005753605296117 3.1368153224178164 232 235 239 196.992035 203.21283 4
-1.7533910708278793 -0.47482249313770553 3.0763327354212104 255 239 241 163.814423 228.096039 4
-0.20728699379915705 0.37580597008797417 0.85018673671589062 226 226 225 292.377655 460.339264 4
-0.073955173552283204 0.43149583507264377 0.79361049385097382 215 216 215 348.364838 497.664062 4
0.10268771654333086 0.47465629012626115 0.78103633935040673 70 84 255 433.382446 524.62085 4
0.40111099909410364 0.49231001953650999 0.88971503810275121 255 220 220 555.724854 499.737671 4
0.52519514685725777 0.042123399299204119 0.59964528724320476 255 147 163 719.539307 315.187256 4
0.62894827665115982 0.19309933653564754 1.0049565896754382 125 144 171 628.300903 362.880066 4
0.37665746246133902 0.47039218419089562 1.4699349749328787 145 164 255 481.075256 410.572845 4
-1.0699298172560852 -1.9471292593800058 5.6763191316843447 255 194 211 311.040039 155.52002 4
-0.65353396035223632 0.39096950906405892 2.4560995376667512 135 159 173 276.203552 350.85318 5
-1.3280523539000426 0.10897184187544577 3.3427092078733374 107 124 143 228.925476 301.086761 5
-1.7528828552083699 -1.7176359026998793 3.0817095231678309 152 178 208 164.229141 72.161293 5
-1.709150507195822 -1.7605064357022795 3.0783334521957482 255 147 174 171.694107 67.1846466 5
-1.4259408982094168 -1.9659702320840307 5.5860752224035686 226 255 221 286.15683 151.787537 5
-1.6142930876785995 -1.0582661004756018 3.0858025990638445 207 218 230 184.135712 156.764175 5
0.61923067541020616 -0.72112741009325998 4.4573010233156154 237 242 255 437.944397 223.948837 5
15.663022249123586 -18.955430086888473 33.631928549096529 208 255 136 562.360413 72.161293 5
0.55557145247791806 0.18749148110021835 0.63949929483305268 255 118 135 719.124573 403.10791 5
0.53146390382896758 0.25204596150878134 0.60751625145837562 255 96 114 719.124573 447.897675 5
0.5414774976283987 0.21651574342209953 0.61167197993210576 255 108 122 719.124573 425.502777 5
-0.077235704541171568 0.43275513488201978 0.80625578745601922 217 218 216 348.364838 495.175751 5
0.36781294188797531 0.48054887394333357 1.3705941676630151 210 210 210 492.687439 423.014465 5
-1.0156987468602816 -0.59921195570799568 3.462403553044477 229 230 230 276.203552 218.972198 5
0.1511025379392561 0.62536986265097505 1.6227816383065887 222 223 222 420.526154 437.944397 5
-1.118426795924353 -0.1652962946428245 3.1416556448668302 103 255 64 246.343719 263.761963 5
0.39828307743924318 -0.46805463959537241 3.4476974246144838 255 163 201 423.014465 236.390427 5
0.026185000961612914 0.44211850215586923 2.4990979357768941 218 255 223 390.66629 358.318115 5
0.10287835825969438 0.49038502668961581 0.81237162743396474 255 54 68 435.456055 522.547302 5
-2.4232274312264428 0.33713876718864766 4.1536152495883742 188 183 255 161.740829 323.481659 5
-1.8730599026540506 0.17500844697322923 3.1417616084894178 241 255 235 154.275864 303.575073 5
0.37525316010985399 0.46112029609805399 0.83082109339422838 225 255 226 554.895447 497.664062 5
-0.84564879632732826 0.25699572581355568 3.2429837907747951 200 255 184 286.15683 316.016693 5
-0.3895157764849726 0.43603644722285967 1.5354426461682413 138 255 96 286.15683 395.642944 5
-1.2553131521482794 -1.6352195934177527 5.8246514731519312 255 210 222 303.575073 179.159058 5
-0.19783619386748752 0.10216153158307682 5.3300865886222226 255 96 118 367.276093 292.626495 6
-0.59296886841829077 0.0072332677901452563 6.041421114115094 135 255 93 346.374207 289.640503 6
-1.0699298172560852 -1.9471292593800058 5.6763191316843447 228 255 197 310.542389 158.257187 6
-1.6638536955689287 -1.0796930231068529 3.1459942264818141 229 255 207 182.145065 155.271194 6
-1.7756075040252117 -1.0935445890754298 3.1225192342007579 209 218 230 164.229156 155.271194 6
-0.73684777767322496 0.33250860324172582 1.0107407647259099 255 107 134 107.495445 412.065857 6
-0.044655160842713704 -0.47825396886052696 4.4186325822415364 96 112 255 373.248077 247.836716 6
-0.048466384325345446 0.40275710810293397 1.2584472387844872 201 255 213 370.262085 412.065857 6
-0.85288934567748464 -0.53218228913828947 3.0083388361819083 230 255 230 274.710571 220.96286 6
-1.0973677693617621 -0.67030622937842088 3.2328611376614358 111 130 255 253.808685 212.004898 6
-1.0665943634607951 -0.95390994964204523 3.8819888724407754 227 255 225 274.710571 191.103012 6
-1.0101982091089137 -0.16097745505792929 2.8474809490976503 74 92 114 244.850739 265.752625 6
-0.86473390120842497 -0.39467633551968639 3.0720520065275547 227 255 224 274.710571 238.878769 6
0.058083016759163497 0.48541582563889479 0.98371204584119343 103 128 255 409.079895 480.7435 6
0.46260882056379615 -0.57448707615520145 4.3973636249549788 196 206 255 421.023834 235.892776 6
4.2196344056599742 0.48012390446434056 13.598891329164603 255 99 124 507.617371 304.570435 6
1.2164558993089671 -0.23856262485240054 2.6833835479697581 154 255 71 558.379089 250.822708 6
-1.5834113000910701 0.33434052833280797 3.0946139914280018 133 131 255 185.131042 328.458313 6
-0.8044494731095857 0.33518722643225618 1.2749219185191123 36 255 66 146.313248 391.163971 6
-0.8673494401472146 0.34336569042882853 1.1687962635787192 135 255 131 98.5374908 400.121918 6
-1.3779997694453776 0.13581323787383681 3.4401423630056627 145 255 112 226.93483 301.584442 6
-0.4762219036428772 0.49314616262306971 1.7863738495971062 255 91 123 283.668549 397.135956 6
-0.62414871637174119 -0.87157416816319544 3.0164777921640247 222 233 255 301.584442 179.159073 6
-1.6643208841711368 -0.23016288110656624 3.3677385367586714 244 246 255 197.074982 261.572266 7
-1.7396023064548909 -0.31999393942237442 3.1203126259573111 255 242 243 171.992722 250.822708 7
-0.16203794998234788 0.32347553600071183 0.70318395159260372 222 221 255 293.820892 462.230438 7
1.5768914397941709 -0.71672111261138771 2.7765508931982539 223 233 255 601.974487 193.491806 7
0.78935790005883755 -0.41657424323676517 3.3017370390462011 243 244 246 472.97998 240.073166 7
0.37292758080069621 0.46317019816538185 0.87015676171567868 255 221 221 551.809998 498.062256 7
-0.085353901966542134 0.4406542722952102 0.83271400784800798 255 212 214 347.568604 490.895874 7
-1.257646503715844 -1.1176937452460254 4.454313417608736 255 227 228 275.904999 193.491806 7
-1.0175312677926165 -0.68189186854033412 3.0300668175642969 130 255 86 250.822708 200.658173 7
-0.048502015152962707 0.40951374446903965 1.2429549582643729 216 192 255 369.067719 412.065887 7
0.71168433185913993 -0.10607206655787266 1.4607083128948255 181 255 100 566.1427 261.572266 7
-0.56201158168025378 0.39556923671243688 1.1571271591928092 160 169 255 193.491806 419.232239 7
-0.029251330955482935 0.41311973733581281 1.5267390983336431 255 151 160 383.400421 386.983612 7
-1.0558965287281108 0.27271711548492628 3.9650449433230017 255 201 202 275.904999 308.153625 7
-0.48931093421392657 0.30055731711218281 1.5520391649867733 129 140 255 265.155426 354.734985 7
-2.1609520005029972 0.18295163135951062 3.5151020728940336 247 255 239 150.493622 300.987244 7
-0.25658833135945103 0.025804388548108237 4.1446419466819373 136 255 93 354.734985 290.237701 7
-1.2500857439398203 -2.1346407774401599 6.3700909930718677 196 213 228 308.153625 157.659988 7
