ply
format ascii 1.0
comment Written with hapPLY (https://github.com/nmwsharp/happly)
element vertex 129
property double x
property double y
property double z
property uchar red
property uchar green
property uchar blue
property float ix
property float iy
property uchar octave
end_header
-0.24054680891908564 -0.076691363617825692 1.3848292994323215 245 246 248 316 265 0
0.57687113335577633 0.65223958035725726 1.4796295018816457 255 119 129 535 457 0
1.0168979451620759 -0.23226173863158017 1.4357087675173013 107 126 150 656.400024 225.600006 1
0.24243082787789394 0.57227865938626665 1.3555630759780755 168 255 134 454.800018 450.000031 1
-1.9771978319323993 -0.54778554587639738 2.5927379465303888 255 124 123 91.2000046 207.600006 1
0.37424905925032181 0.69418988056474817 1.1050812527507903 137 156 255 513.600037 530.400024 1
-0.58714113170590787 0.41780398495296733 1.6408991469582865 229 229 228 248.400009 385.200012 1
-0.3071743916577212 -0.030300647216103371 1.2175062897361038 248 248 250 288 277.200012 1
1.2292326772150715 -0.64367798454099545 2.2127804985497663 238 255 216 598.800049 175.200012 1
0.48043870226076146 -0.3755863048534982 2.1884130071306513 240 243 246 468.000031 220.800003 1
0.58289321476351752 0.65553496446951887 1.4957351769636666 121 130 146 532.800049 456.480011 2
0.23820688547836966 0.098687593495686787 3.9949741132046661 255 65 117 407.52002 298.080017 2
-0.56978038344830439 -1.3299534162153888 2.2235042090737123 215 255 152 286.559998 57.6000023 2
0.95893492369246969 0.61292917191865315 1.3907029099249373 204 255 174 650.880005 455.040009 2
0.79825372791550375 0.62065052845000035 1.6563433843308513 105 255 64 570.240051 433.440002 2
-0.24297934281812861 -0.43859197004819328 1.4121175329847331 255 209 223 315.360016 168.480011 2
1.3122611488851195 0.077911506881620463 1.7545129823355063 255 139 166 671.040039 303.840027 2
-0.27292201269852256 -0.73392457978074388 1.7753421564409226 87 169 193 324 132.480011 2
-0.52601806911170401 -1.4541141793455858 2.4719755542682718 190 218 255 305.279999 63.3600006 2
-0.66267655585264507 -0.48588799344801759 2.0543440533950195 255 227 234 259.200012 197.280014 2
-1.9299776085445699 -0.20916488678567369 2.451425533053035 255 95 111 79.2000046 254.880005 2
1.0203380972265967 -0.23644514426934549 1.4381252224202834 255 109 128 655.200012 226.080002 2
0.7929659016028916 0.6208768805342455 1.4260876678845769 255 153 161 599.040039 456.480011 2
0.42280640219415933 0.66697555009745702 1.0952539505258461 112 125 142 532.800049 521.280029 2
0.41810885518271323 0.019446123670377458 1.7293312312913978 249 251 255 473.76001 292.320007 2
0.50275750597442115 -0.032585459027388741 2.1371162505461117 250 251 255 473.76001 280.800018 2
0.51557035245922744 -0.39301012446505368 2.2232100852215533 241 243 246 472.320007 217.440002 2
-0.2247000346216228 -0.39576814057445531 1.2392294919163351 205 222 234 316.22403 167.616013 3
0.80377533544931934 0.41808241598488749 1.529882655151213 255 128 141 587.520081 395.712036 3
-0.42714874006085202 -1.1951922611374644 2.0150399767676612 163 190 218 304.128021 62.2080078 3
-0.58833582419348085 0.41745716908024821 1.641279422883426 229 229 228 248.832031 385.344025 3
0.78794427015137303 0.51123045891507346 1.4986216181497696 125 138 153 584.064026 418.176025 3
0.5937284840721504 0.039682566244614192 2.0962939460834367 247 249 251 492.480042 295.488037 3
-0.37866680471275105 -1.463205912091851 2.313273700472986 168 194 255 321.40802 43.2000046 3
-0.24101726779308263 -0.0864584853065129 1.3916008823680697 245 246 248 316.22403 264.384033 3
-0.56978038344830439 -1.3299534162153888 2.2235042090737123 215 255 152 286.848022 57.0240059 3
0.83888829312186863 -0.51499125657124545 1.7804416835202268 233 239 255 565.05603 176.256012 3
1.0352081567304037 -0.23672212638047618 1.4607110785763053 149 255 106 654.912048 224.640015 3
0.70757691360938058 -0.45056467234960973 2.5051859302183779 255 239 242 495.936035 217.728027 3
-0.37776063123951076 0.65612250621265744 1.1157338101442855 90 112 141 252.288025 513.216064 3
-0.39306033693312958 0.085351373009621145 1.5384268898047395 170 255 123 286.15683 308.966431 4
0.6147578894939203 -0.34351207126052519 2.3057711514072627 255 245 246 487.296082 232.243225 4
0.76651087383768113 -0.18152231156086562 1.5461979023939829 249 255 247 570.240051 244.68483 4
0.7729800531680846 0.67421768351928257 1.6901265048742573 130 147 255 557.798462 443.750458 4
-0.1794685542585488 -0.16022322224826246 1.0265247890624929 255 231 238 315.187256 230.169632 4
0.93376238816449597 0.43512997134989101 1.2985945152658749 149 180 255 661.478516 416.793671 4
0.59201735895282614 -0.048479769263639838 2.5700897204302029 251 255 249 474.854462 279.936035 4
-0.22815232685094333 -0.31051784700482599 1.3375563760257476 255 230 235 315.187256 196.992035 4
-1.9661622844037212 -0.5403013287027012 2.5784498688084101 255 124 123 91.2384109 207.360031 4
-0.4421305024976494 -1.2913459494014026 2.1760840620928485 163 190 218 304.819244 62.2080078 4
-0.20965005520788615 -0.53158337417265433 1.2987996141241709 180 203 255 321.408051 130.636826 4
1.0092514829969201 -0.45097608592369853 1.470212006455295 237 255 211 646.963318 170.035217 4
0.87090223019956703 -0.070461465742261975 1.7051579927142466 250 255 249 578.534485 271.641632 4
1.0592100691102724 -0.25026329654054236 1.5101153601247441 255 109 128 655.25769 226.02243 4
0.60220210840063926 -0.42426680770515679 2.0730769675138703 238 244 255 493.516876 207.360031 4
0.71823241317284281 -0.075668270598513776 1.9120080286131538 251 255 249 526.694458 271.641632 4
-0.36756718452101333 0.32341755093811764 0.67464480526841974 107 134 161 176.256027 470.707275 4
0.81408723156725804 0.63425525619840206 1.4774425320301603 166 168 255 597.196899 456.192078 4
0.21652914115078659 0.66762836164150163 1.2606197369967651 154 255 114 454.118469 491.443268 4
0.43730753802308975 0.68448235036530991 1.1448815816889901 135 255 101 530.841675 520.473694 4
0.47056844226518946 0.48200048633828341 2.2826185971795576 51 58 75 460.339264 369.100861 4
0.53083464583898277 -0.41260105268408165 2.338630917042118 240 243 246 468.633667 221.875229 4
-0.55334618134289304 -1.3156625436136649 2.1823009886394811 147 181 215 288.230438 53.9136086 4
-0.43056547022179892 -0.048016228294864627 1.6978562451134191 250 255 248 286.15683 276.203552 5
0.58683597490923556 0.64099181350851464 2.2260019774091866 255 106 117 487.710785 398.131256 5
0.34039002714827538 0.181745362822062 2.8087861777891066 255 58 122 427.991089 311.040039 5
0.284097028229084 0.16991995265594295 3.6768821901559825 134 160 255 413.061188 303.575073 5
-0.67683536191597859 0.48807769377707455 1.9510993391713658 205 206 206 248.832031 383.201324 5
0.83888829312186863 -0.51499125657124545 1.7804416835202268 226 233 240 564.848694 176.670746 5
0.97608156834637716 -0.43847766633397933 1.4019298019153172 237 255 211 646.963318 169.20578 5
0.73187709707508031 -0.059180744581660005 1.4052203029214079 255 249 250 579.778625 271.226929 5
0.58995204656134637 -0.4436770098995767 2.066734046944477 232 237 243 492.687439 204.042267 5
0.63919765842838716 -0.53863109218236815 2.0737944953311693 241 255 226 502.640717 189.11235 5
-0.35130934249898749 0.35496654304319564 0.64860974613950173 157 255 111 174.182419 500.152405 5
-0.3945472621563737 0.074756064805638456 1.5461796795218872 181 255 136 286.15683 306.063416 5
-0.36963678541948219 0.0064088368081069991 2.1797231504382211 237 241 245 316.016693 291.133484 5
-0.42260313033465025 0.3475576151047759 1.5173445744777334 188 255 169 278.691895 375.736359 5
-0.18298654186297325 0.92326154759663281 3.2182644293383067 255 155 160 363.294769 398.131256 5
-0.32055752344894284 0.66309196024547101 2.7414668722542856 255 19 27 335.923248 378.224701 5
0.79593533994129162 0.6236905122980787 1.4256563818395334 167 169 255 597.196899 455.36261 5
1.0048541287804464 0.51885982078565318 1.1598501334545901 129 146 173 716.63623 460.339264 5
0.22171037047184949 0.68189858049503127 1.278804281758994 255 110 124 455.36261 490.199097 5
0.42685883639863009 0.67220119451620874 1.1265077446671352 138 255 104 530.012207 517.570618 5
0.76873673827557587 0.68295934211952036 1.2212913707138968 255 44 32 627.056702 502.640717 5
0.53083464583898277 -0.41260105268408165 2.338630917042118 246 255 240 470.292542 221.46051 5
19.285697379624732 -31.477222634240121 59.036241938168736 255 179 200 515.082336 82.1145706 5
0.28079298399814734 0.25855790756208563 2.100059566422277 101 148 168 432.967773 337.41626 6
0.89398820466296214 0.45726760056697996 1.6836616883542943 129 142 157 588.238953 394.149963 6
0.79342216748377226 0.560335706581227 1.717564895867655 97 108 121 564.351074 415.051849 6
-0.70750155428325634 0.69678684303381755 6.1665443136210065 105 130 255 337.41626 331.444275 6
0.82378631856420381 -0.51149950855050985 1.7486153399107236 226 233 240 564.351074 176.173096 6
16.580112293946492 -26.775675432507008 47.849323134500608 255 165 192 519.56134 74.6496124 6
0.21198509042237079 0.71768368044821185 1.2232297100538299 157 173 255 453.869659 510.603363 6
-1.0685518947506356 0.39099786343874898 3.1852177823221801 245 255 239 250.822708 331.444275 6
-1.6492638651915055 -0.44383424128095239 2.112343026872848 173 255 179 86.5935516 203.046951 6
-0.30779744263662634 -0.58635561743657227 1.3005598659750195 255 183 207 295.612457 119.439384 6
0.41803894513811013 0.65813754404440605 1.1081911795227803 107 120 136 528.519287 516.575317 6
0.55381240585219649 0.57911854891917169 2.0362150905725711 125 255 90 486.715485 400.121918 6
-0.53718332891667275 0.34716291583145775 0.78998383826080598 220 218 255 125.411354 456.855652 6
0.94727076891821127 0.60078066494266547 1.3720587279197627 255 179 187 647.958679 456.855652 6
1.0092514829969201 -0.45097608592369853 1.470212006455295 211 225 237 644.972656 170.201126 6
0.20779266048871992 0.12830918237462918 3.9537619511719075 255 70 121 403.10791 298.59845 6
0.5696612208645182 -0.42126711757318924 1.9830221666807981 233 237 243 492.687439 206.032928 6
0.63919765842838716 -0.53863109218236815 2.0737944953311693 233 240 255 501.645416 188.117035 6
-0.2966157526267903 0.6890456847294526 2.5588743264127602 236 238 238 340.402252 388.177979 6
0.86611124012499863 0.66776920498492776 1.5695392641612909 169 255 143 594.210938 453.869659 6
0.74241195336475929 0.63445586574709822 1.5838099243306232 117 131 255 561.365112 441.92572 6
-0.47151314016448787 -1.316493865329242 2.1845478890078294 187 217 255 301.584442 59.7196922 6
0.80992547849530139 0.69411420310073479 1.7886350866694594 122 255 104 562.559509 440.731354 7
0.52239307845763072 -0.39173442821814031 2.2826895055435878 241 243 246 472.97998 218.574081 7
0.18606416596453101 0.11741847845544506 4.3664022709038388 141 171 255 401.316345 304.570435 7
0.20779266048871992 0.12830918237462918 3.9537619511719075 126 156 255 401.316345 300.987244 7
0.75600064412153234 0.49120686226311006 2.0809071899922067 255 113 127 523.144531 383.400421 7
-0.70750155428325634 0.69678684303381755 6.1665443136210065 22 108 134 336.819061 329.65271 7
0.90227011107076649 -0.086722727706661007 1.7850799402226132 249 250 250 576.892212 272.321808 7
0.66055578559805461 -0.15982975505270436 1.2349746775970951 246 247 249 584.058594 240.073166 7
-1.9183076212643586 -0.53234709837842886 2.4910057051325758 146 156 255 85.9963608 204.241348 7
0.86390860084068977 -0.44108344885733564 1.5081601884714457 238 255 216 598.391357 175.575897 7
0.88881944495092924 -0.55022731909622669 1.927353403543103 240 255 228 562.559509 175.575897 7
0.9938546356233916 0.61512940908518088 1.2166205284324487 255 113 130 695.137207 487.312714 7
0.37279169833009629 0.5475581153098722 2.0192707445801732 255 227 226 455.064056 390.566803 7
0.45317512062875642 0.49458846914840771 1.6772273257918275 255 89 95 483.729523 397.733154 7
-0.26827440551526482 0.61464426288124852 2.2454112001044884 210 215 220 336.819061 390.566803 7
-0.32842800904966563 0.69010209034765468 3.1656205638988801 87 97 97 336.819061 369.067719 7
-0.33718309217776365 0.3384201423793558 0.60489396437689802 255 105 130 175.575897 501.645416 7
0.80565919788306828 0.62823159808263684 1.4888100984970665 169 255 143 594.808167 455.064056 7
0.45113370992748525 0.2891474342997159 2.3293217504540644 255 241 241 455.064056 329.65271 7
0.79748099919417914 0.69597710641827693 1.264023623152271 255 40 32 627.056763 501.645416 7
0.98373111710904315 -0.43380952404476902 1.4252669185980791 212 226 237 644.972717 171.992722 7
