ply
format ascii 1.0
comment Written with hapPLY (https://github.com/nmwsharp/happly)
element vertex 183
property double x
property double y
property double z
property uchar red
property uchar green
property uchar blue
property float ix
property float iy
property uchar octave
end_header
-1.6794294481954948 -0.62603074543772885 3.2132621663280552 228 233 239 184 214 0
-1.7084780658947625 -0.78645189966784534 3.2728354836738798 228 232 237 184 196 0
0.63836722385920408 -0.53619302376979094 0.77207896191554171 137 163 199 700 22 0
-0.1630306978934124 0.4325354648633179 0.93569148112951006 255 218 218 319 466 0
-1.7044060748896621 -1.0458737934855964 3.2514897016147706 218 230 255 181 163 0
-1.8415603750814413 -1.080604114452937 3.2010715694389349 217 229 255 165 157 0
-1.6573585460251818 -1.5203681329426235 3.1912521958866842 174 193 215 184 106 0
-0.91697859630497724 0.27197825195632114 3.2870191902402559 148 156 255 277 319 0
-0.18602741684360824 0.32218851419533195 0.8482982327559967 221 218 255 301 433 0
-0.664167951723313 0.3747437665513495 0.82244404543010097 106 113 255 73 463 0
-1.1657364831470849 -0.56591447374569004 3.2962912715895851 160 255 102 250 223 0
-1.2216528759537741 -0.1667732639997101 3.3312858731745414 70 92 109 244 268 0
-1.8057687573768733 -0.040419692824577802 3.1477661372321983 255 243 244 163 283 0
-1.7075126397736229 0.33646569092424838 3.2580537078010616 147 157 176 184 328 0
-1.700991770250079 -1.7381190580719057 3.2291397816120853 172 206 255 181.200012 81.6000061 1
-1.8316816629394528 -1.7204193740686955 3.1919307228623257 255 147 175 163.200012 81.6000061 1
-1.3140640296043036 -1.6095866083127812 5.9356023225809569 225 234 255 297.600006 183.600006 1
-1.2932859944430679 -2.209196965464451 6.5061548924682793 194 210 227 308.400024 158.400009 1
-0.80178056011475185 0.23451795324292446 0.92790844246340987 161 255 175 50.4000015 385.200012 1
-1.6176092086885152 -0.38590662072518911 3.1247275129064587 255 238 240 183.600006 241.200012 1
-1.7940979038133413 -0.32927303638503519 3.1353113586318035 241 244 255 165.600006 249.600006 1
-1.6015042405305202 -0.91481865449249256 3.106202897249994 233 255 218 186 175.200012 1
-1.8758440921019481 -1.0409232815591336 3.245646441411572 255 210 219 163.200012 163.200012 1
-1.6548112717788417 -1.3090650012611502 3.1800294838520862 255 191 206 183.600006 129.600006 1
-1.8694366190788569 -1.3362961587424764 3.2464728613311249 255 209 216 163.200012 129.600006 1
-0.16441955668608177 0.43330116235623811 0.93743114289585083 255 218 218 319.200012 465.600006 1
-1.8567422189064109 -1.5372003026195635 3.2214683121031391 255 189 202 163.200012 105.600006 1
-0.55725089976229669 0.30176031147233318 1.7347252181124309 255 164 164 259.200012 354 1
-1.5997765303917739 0.11648538400893416 3.9389609652417636 115 133 255 229.200012 297.600006 1
-1.6462617225488723 0.2845975707340177 2.8656720752853824 180 177 255 165.600006 327.600006 1
-1.6380233796102561 -0.75668636898338193 3.549333181111141 255 226 231 207.600006 205.200012 1
-1.4872215935619706 -1.9740694045514049 5.9406456159370968 210 227 255 289.200012 159.600006 1
-0.12657266457119043 -0.76514610552517592 5.6833653508870521 255 129 149 375.600006 235.200012 1
-1.6953816846927197 -0.24377981327237908 3.1749209262473963 243 245 255 177.600006 259.200012 1
-1.5301047885860486 -2.0075510498661377 5.7845706250621056 224 255 215 282 152.400009 1
0.55754914111943044 -0.18021479694071618 0.71322570371866578 141 152 255 685.200012 189.600006 1
0.57367905797113483 -0.3628758678882632 0.74322242043844589 201 218 255 681.600037 99.6000061 1
-0.64941057706495409 0.45188001301219294 0.80057687653670984 139 140 138 72 505.440033 2
-0.46482340563687985 0.3130033892026084 0.57324424923099881 104 107 108 72 495.360016 2
-0.71611834543786168 0.34490690367828342 1.3588371224085678 86 104 34 180 387.360016 2
-1.8547359197397268 -0.94452143778173414 3.2160787565422706 218 224 233 164.160004 174.240005 2
-1.6630780388855819 -1.0800576596299816 3.2001167480674271 204 215 228 184.320007 156.960007 2
0.46023009618247868 0.24595923187732083 0.73564212610023683 255 26 32 623.52002 417.600006 2
-1.1684984131267164 -0.16142598563885621 3.2000665405798183 255 67 87 243.360016 267.839996 2
-1.7940979038133413 -0.32927303638503519 3.1353113586318035 244 255 240 162.720001 249.12001 2
-0.78029980682840105 0.32341418815000961 1.0909935761835552 155 255 170 106.560005 401.76001 2
0.29310032466404357 -0.55810487374186957 5.0538745662210127 138 255 66 406.080017 246.240005 2
0.43762413433259917 -0.57030187409925692 3.9958614311175475 255 225 233 423.360016 233.280014 2
-1.614767219067704 -1.1466601340001024 3.1258090374774414 212 226 255 185.76001 146.880005 2
0.0016365557644324458 0.5021117553047012 1.9926554841732895 193 197 255 385.920013 385.920013 2
-0.015590248683904351 0.48154634656886885 2.6367199893864157 219 218 216 384.480011 357.120026 2
-0.15637614145663226 0.3228815968912831 2.9027536738950777 207 210 212 364.320007 328.320007 2
-1.7319191532753417 0.23923847253654812 3.8870869393623995 127 255 110 214.560013 309.600006 2
-1.6557415846600549 -0.070468678933270579 3.096949907704627 246 255 243 178.560013 279.360016 2
-1.6953816846927197 -0.24377981327237908 3.1749209262473963 243 245 255 177.12001 259.200012 2
-1.5942531917037703 0.32035218025563683 3.0689405226931217 176 255 146 182.880005 328.320007 2
-0.70757906182648878 0.32386275893269834 1.3861116452394244 255 132 146 187.200012 378.720001 2
-1.2272736258381611 -1.5263690817707769 5.4268673958893077 215 224 234 296.640015 182.880005 2
-1.8204098137475775 -1.7771559221172062 3.23946648129703 141 171 205 168.480011 76.3199997 2
-1.8473185785765476 -2.0597115304440878 3.2369070681705239 196 255 120 162.720001 43.2000008 2
0.55754914111943044 -0.18021479694071618 0.71322570371866578 122 134 255 685.440002 190.080002 2
0.46743311829781453 -0.12315664091418166 0.75285764195297911 255 240 241 623.52002 226.080002 2
0.64714811084547108 -0.031797044706046551 0.71226607406455722 83 98 113 732.960022 270.720001 2
0.56179081427753541 -0.0017148680401708957 0.70880079090696579 148 168 255 685.440002 286.559998 2
0.5825061935349094 -0.78182468240455327 3.9346278479261372 227 233 239 440.640015 213.12001 2
0.48897994619790475 -0.25822397600369529 0.72607182517471869 225 255 191 642.240051 151.200012 2
0.56282094187483422 -0.35263013728726889 0.72137301291305045 199 217 255 681.120056 100.800003 2
-0.15590188594193566 0.42242484277804343 0.90380789540917328 218 255 219 318.240021 466.560028 2
-0.5436160283595719 0.40323700737745483 0.85404082412622495 255 159 171 139.680008 468.000031 2
0.47221119906673714 0.45361885418432374 0.74070074424773757 6 255 0 630.720032 524.160034 2
-1.4366049977053303 -0.12614673121353101 1.5984801881635216 174 255 175 38.8800011 257.76001 2
0.54717251891070795 0.39974710585737594 0.73466880639952659 13 255 4 670.46405 497.664062 3
0.42794580854993303 -0.58689014184494481 3.9834004635631528 255 225 233 423.360046 233.280029 3
-0.88435079448350518 0.35657472386738687 1.228202446659816 255 144 162 107.136009 402.624023 3
0.48106209594634797 -0.25455910324112013 0.71385775048339117 255 192 209 639.360046 152.064011 3
-1.5821238164348381 0.1196279532461923 3.849952782089284 99 116 134 228.096024 297.216034 3
-0.99404509936607655 -0.67882945530287153 3.5859860256044538 255 223 225 279.936035 216.000015 3
-1.1210129622177623 -1.9063742657509721 5.6770457210277021 255 194 210 307.584015 158.976013 3
-1.2257677841907078 -0.17243314982655553 3.3293165930482482 255 67 87 243.648026 267.840027 3
-0.58881700020514427 -0.11533075771887485 7.3913860786358558 255 88 109 355.968048 281.664032 3
-0.11823116969434855 -0.71916564800202443 5.3795952260585631 151 255 149 374.976044 235.008026 3
-1.6734796711317879 -0.72506402096188627 3.3511313796865259 234 238 255 193.536011 203.904022 3
-1.7002949938670771 -1.0658081722048309 3.2135217790241137 218 230 255 181.440018 162.432022 3
-1.6278272039775281 -0.14237283323420005 1.8047414757761837 174 255 175 38.0160027 257.472015 3
-1.5301047885860486 -2.0075510498661377 5.7845706250621056 255 211 218 283.392029 157.248016 3
-1.8077313536527821 -1.7837504487592448 3.2322671012502755 255 143 172 167.616013 77.7600098 3
-1.8001017008787885 -2.0993520535632442 3.2232242552363912 153 195 255 169.344009 38.0160027 3
-1.6540660333471644 -1.3048318341672263 3.1690171315958269 206 222 255 181.440018 129.600006 3
0.55911989056900779 -0.21622029259958481 0.71327258186980802 168 180 190 684.288086 174.528015 3
0.57658479142880992 -0.25753380232023804 0.71155749081566011 203 214 227 696.384094 146.88002 3
-0.030337386701338342 0.47481017614841042 1.1020094708246737 101 121 255 373.248047 454.46405 3
-0.81942093638478264 0.24987814324864324 3.0089201273606037 165 255 142 278.208038 317.952026 3
0.29269600388151162 0.44852435094368548 0.95174773787167344 224 223 255 501.120056 470.016052 3
0.057198931460495039 0.4453009642446718 0.90506859823968644 138 255 99 406.425659 479.001678 4
0.4610520960435478 -0.67653897593075429 4.3135738636476288 255 225 233 423.014465 232.243225 4
0.17510354656707106 0.41151172021667021 2.504615641336414 215 215 213 408.499268 350.438446 4
0.12895540705476805 0.44470519129116881 3.5898791480155881 134 255 111 398.131256 333.84964 4
-0.1096287319266418 0.29280497563005947 2.6138847902140032 200 206 211 364.953644 329.702454 4
-1.4595763864930529 0.12050769378955767 3.6016817585547978 136 255 102 226.02243 298.59845 4
-0.041046715615913998 0.44176727395119075 2.56945846333661 255 219 219 379.468842 356.659241 4
-1.191702462979559 -2.0458765387715219 6.0286816942212953 227 255 194 306.892853 159.667221 4
-1.38990342859362 -1.679489626265235 6.0955593417778768 215 224 234 296.524841 182.476822 4
-1.5301047885860486 -2.0075510498661377 5.7845706250621056 224 255 221 282.009644 157.593628 4
-1.6005510404207035 -0.20640986540435291 3.2239282438155703 243 244 245 192.844833 263.347229 4
-1.7927426612104771 -0.3228348987424321 3.1626968375971569 241 244 255 165.888031 250.90564 4
-1.8197898398205643 -2.0341638290648349 3.194978138131336 255 120 155 163.814423 43.5456047 4
-0.51146397383692066 -0.061840570685135668 6.5959969369393674 130 255 88 354.585663 284.083252 4
0.015729428133788304 0.43928040535192581 0.6977860798007578 255 118 133 391.910461 530.841675 4
0.94411095650099564 -0.73682039962230472 2.9909146038017362 227 236 255 505.958466 190.771225 4
0.45784961774474964 0.17892345586057945 0.76091643440989665 203 206 255 617.932861 379.468842 4
-1.1024377933859384 -0.54729041801081457 3.1755073538215779 97 112 130 248.832031 223.948837 4
-0.15879244585436347 0.41968626563011624 0.91433691886468704 218 216 255 317.260834 464.48645 4
-1.7002949938670771 -1.0658081722048309 3.2135217790241137 228 255 205 182.476822 157.593628 4
-1.8512182406584188 -1.0972290713496804 3.2355032118803555 255 207 217 163.814423 157.593628 4
0.57466398272112318 -0.21720440765334781 0.71684584549557262 167 179 189 692.58252 174.182419 4
0.55702777845619522 -0.18119397925041628 0.70624748910356661 146 255 108 686.361694 190.771225 4
-0.68168767660364438 0.30020554030086205 0.78780497863614984 255 199 202 55.9872093 433.382446 4
0.43104385597367878 0.25913131037488252 0.99597665680508274 255 137 140 547.430481 387.763245 4
-0.63276013700492917 0.44155741664844284 0.74205909358039568 145 255 162 58.0608063 518.400085 4
-0.13257676889904957 0.39944988677606946 1.339744657592693 201 204 168 348.364838 400.204865 4
-0.47463697822513384 0.42636006498185952 1.6532334508604403 113 122 255 273.71524 387.763245 4
-1.3000563938553951 0.097261181549696041 3.2234069189493484 136 255 102 226.437149 298.59845 5
-0.61677695963252832 0.32149668129521503 1.4908476815586997 255 182 184 223.948837 370.759735 5
-1.5110984358045796 -1.9667022512998464 5.7125486968443475 255 210 217 283.668518 156.764175 5
-1.5166071753595043 -0.19356767434055133 3.0991273038781202 245 255 242 194.088989 261.273651 5
-1.7927426612104771 -0.3228348987424321 3.1626968375971569 244 255 239 166.717468 248.832031 5
0.56375252007332688 -0.35403967608110898 0.73203844300812548 201 218 255 681.799805 99.532814 5
0.45681748128119393 0.20842423031298732 0.7380394021167791 165 255 126 622.080078 395.642944 5
1.2585806745102219 0.35671630408788485 2.0351029062521797 255 119 137 619.591797 360.806458 5
0.28159096071705914 0.43832240660831023 0.84046319112989565 219 220 221 512.593994 485.222473 5
0.5602764308028223 -0.25492030248371556 0.71683835554423703 230 255 213 686.776428 151.787537 5
-0.56412060219337867 0.29652623136619527 0.64609250029301579 204 202 255 49.766407 462.827576 5
-1.1922923364719091 -0.16902043876057557 3.2405153816533541 255 66 85 243.855392 266.250275 5
-0.7947618673246124 -0.61832879310391142 2.9926094762849971 216 255 210 278.691895 206.530594 5
0.48581788119816394 -0.49538469207377167 0.78819245682607675 114 155 199 624.56842 49.766407 5
-0.91511664768818157 0.33170417690671272 1.8954001838699224 255 124 140 199.065628 350.85318 5
0.38903008895045699 0.38814215149579739 0.73605195134020085 255 0 0 587.243591 487.710785 5
0.2837789555689294 0.47252324973228005 1.6831448416938719 163 171 183 452.874298 395.642944 5
-1.0130757004167847 0.25993308674763593 3.591599712950285 158 255 131 278.691895 313.528351 5
-0.24908764389756222 0.31438638230892052 0.8302350626410071 221 222 220 268.738586 430.479431 5
-1.1210129622177623 -1.9063742657509721 5.6770457210277021 194 211 227 308.551727 159.252502 5
-1.0670252160186839 -0.16334292935587982 2.9076624641151061 85 105 255 241.864746 265.752625 6
-1.8604317546074078 -0.27149812528943396 4.3750553846440354 98 117 137 220.96286 265.752625 6
-0.25061769382716204 0.18715715539324213 3.4658401408973267 102 255 50 358.318146 313.528381 6
-0.57001981000632695 0.291397258759925 1.6598468694263495 175 188 255 253.808685 352.346191 6
-1.7211305515724371 -1.0746594821642725 3.2322609216375007 255 207 217 179.159073 161.243164 6
-1.4395068071075321 -0.43712560282440227 3.2893828775648419 161 169 184 212.004898 238.878769 6
-1.5110984358045796 -1.9667022512998464 5.7125486968443475 255 211 218 283.668549 158.257187 6
0.063689703387066476 0.62246572412791645 1.7502257856457377 212 255 209 394.149963 421.023834 6
0.27018778924125886 0.42004028911935276 0.88880708600934599 255 220 221 495.673431 468.799591 6
-0.11908835281448749 -0.46376604558042744 4.3968438582429394 159 255 151 370.262085 244.850739 6
0.95376908525376658 -0.75452703717893177 3.0648504643368222 255 218 227 507.617371 194.088989 6
-0.9852222632761416 -0.55485071723015367 3.2325847579137097 228 228 255 265.752625 223.948837 6
-1.1338161336661714 -0.71988884636944395 3.2448242058835746 216 218 255 253.808685 197.074982 6
-0.94429045985220927 -0.40130007557386743 3.1858399256506011 223 225 225 268.738617 241.864746 6
-0.027836488929008141 0.47480377843888649 1.1036118297414474 100 107 129 376.23407 453.869659 6
-1.0469635041960541 0.58491244599726333 1.8572825766629086 207 255 207 170.201126 415.051849 6
0.0084431344335220704 0.47868159749058437 0.94319762345992486 255 38 58 391.163971 486.715485 6
0.43879859694446144 0.25489672784752188 1.1685811400861723 13 13 24 528.519287 373.248077 6
-0.58978547794672842 0.41468894667953615 0.70020229716197324 181 179 176 56.7337074 513.589355 6
-0.63410669788687613 0.22607396278152977 0.96239145327002196 171 190 161 128.397339 376.23407 6
-0.95721215006720151 0.24940719927853119 3.503312923055641 131 144 255 277.696564 313.528381 6
1.1547043690091381 -0.25112972237842679 3.0207052048306888 144 185 255 537.477234 253.808685 6
-0.56202369389254625 0.48414976761036682 1.9054335564324538 80 114 123 268.738617 388.177979 6
-2.4929664294503455 0.32365397933854795 4.2581739087199137 164 162 163 164.229156 319.500336 6
0.57025506275346616 -0.21910627661352827 0.71615353347269139 203 255 189 686.776428 170.201126 6
-1.784348749282771 -0.47919823024234076 4.0277171793583584 255 195 201 211.407715 240.073166 7
-1.8436324350045377 -0.3305133416077975 3.268955311797308 239 241 244 164.826355 247.239532 7
-1.8817445059777063 0.34992553096217732 2.3993228511135074 162 255 130 82.4131775 343.985443 7
-1.3528104791940816 -1.1044435335583123 4.5710461605238066 224 225 225 272.321808 193.491806 7
-0.27862167540481031 0.012556477377162131 3.9248118417372595 255 88 109 351.151794 286.654541 7
-1.0256013460786511 -0.39784250520534009 3.3558787611189693 226 226 255 265.155426 243.656357 7
0.28108232680364642 0.44094629422122178 0.85427848296776809 224 224 223 508.811798 487.312714 7
0.28703302877297243 0.44090328410649748 0.95829387128158117 224 255 224 494.479065 465.813599 7
0.50142174956968422 0.3650931131389753 0.72931843672651042 152 165 186 648.555847 480.146332 7
0.028802817548357451 0.45357290622291591 0.88727664919136995 78 255 46 394.149963 487.312714 7
-0.9333855162721596 0.34461196674913197 3.2091742494547453 145 147 142 272.321808 329.65271 7
-1.1507466577134466 0.261446694397931 4.1070480072092197 255 141 143 279.488159 311.736786 7
0.27589972960377729 0.46363383352597315 1.4276230820073943 215 255 213 458.647247 412.065887 7
0.44833952489728846 0.24196431429156395 0.72220258963750616 255 13 16 619.890442 415.649078 7
-0.16952128633007169 0.43007241837533428 0.9529315711096884 218 255 217 318.903168 462.230438 7
-1.8258896925228929 -1.815231162449787 3.2517116422627015 143 171 204 168.409531 71.6636353 7
-1.3601780195147448 -2.1542953725195071 6.5773979443092525 195 212 228 304.570435 164.826355 7
