ply
format ascii 1.0
comment Written with hapPLY (https://github.com/nmwsharp/happly)
element vertex 174
property double x
property double y
property double z
property uchar red
property uchar green
property uchar blue
property float ix
property float iy
property uchar octave
end_header
-2.2466722285476455 -0.91524697418010359 3.6877112229071134 255 226 229 151 193 0
-2.0258920924201687 -2.366627597102732 3.5702117166056788 180 255 99 166 34 0
-2.0661649732856082 -2.7133505203675141 4.0136142140088573 255 95 132 187 30 0
-0.19269194805814571 0.44115066696455335 0.65597648060625757 255 203 204 271 547 0
-2.01253398667364 -0.66147822255383149 3.6012824782546482 229 235 255 169 217 0
-2.0276791426156944 -1.0787068276872116 3.6110385015883355 215 226 255 169 172 0
-2.0242113524543024 -0.27244202960199682 3.5582749704855483 241 255 238 166 259 0
1.3617316840548086 -0.1368129956768479 1.6132621604109292 106 115 255 709 256 0
0.18087351244430905 -0.48628442316243836 1.111601872156057 184 210 255 445 121 0
-1.3054050373616497 -0.72997427922367075 4.0032198119015883 255 215 217 259 220 0
-2.0275604551144064 -1.9461440184550765 3.4303752213461851 159 193 255 157 70 0
1.2353433237469049 -0.74258109903090297 3.2832584753685676 219 231 255 529 202 0
-1.9468133496379978 -1.1940825068063396 3.5079894953496162 206 221 255 169.200012 157.200012 1
-1.4101536188097024 -0.21678245458169715 3.6029196795803413 255 106 115 231.600006 265.200012 1
-2.1673360734149734 -1.119966405418708 3.5724538530138736 204 213 224 152.400009 165.600006 1
-2.1370211272426478 -2.2992345662845155 3.6102731174880827 137 182 255 157.200012 43.2000008 1
-2.0648137871296353 -2.5131486454346095 3.6171948621662597 132 178 255 165.600006 22.8000011 1
-0.4296859096121548 0.36851154102520495 0.69133292494304666 103 112 255 145.200012 492.000031 1
-1.8408267946693302 -2.0328237305866099 6.1847144395752425 219 255 183 270 159.600006 1
0.28045863220243006 -0.24281435615073016 1.0614415281104872 255 214 222 483.600006 199.200012 1
-2.0128326405754802 0.27018034922124756 3.3054470511216727 200 255 198 150 319.200012 1
-2.2426255901793568 0.1685122790533318 3.5948347106171994 223 215 222 144 303.600006 1
-1.0644686437343249 0.30342929955490366 1.2054372637741357 255 178 181 43.2000008 385.200012 1
-0.29236713941794856 0.45088881173000311 1.3371412763011508 101 122 255 301.200012 417.600006 1
-1.3771793406771078 0.28183304004355292 4.068157717853107 255 155 158 255.600006 315.600006 1
-1.1067927523996435 0.067227038479383439 3.4819066002178904 164 170 255 261.600006 294 1
0.10725796331172599 -0.6559604227904039 4.6844624824075662 105 148 166 392.400024 234.000015 1
-1.9402138916083489 0.094100160246561981 4.370857761820953 99 119 255 213.600006 295.200012 1
1.2366524233819289 -0.13125262552328329 1.4719075258014069 87 99 108 708 255.600006 1
-0.72211150153717751 0.29160608456831172 1.2354987795109467 255 118 137 159.600006 379.200012 1
-1.434817089645998 -0.66317570162604667 3.5647469198837149 95 113 255 229.200012 217.200012 1
-1.9050003966767086 -0.25392876661417585 3.3444688276102665 239 241 255 165.600006 259.200012 1
-2.1361165293105535 -2.1526852598460593 3.6024832964663775 125 152 189 156 60.0000038 1
-2.3670149754805334 -1.6364088336572589 3.8851331766011361 255 200 207 151.200012 127.200005 1
-2.1919053465016596 -1.8484599745322645 3.694279258887077 139 166 198 156 93.6000061 1
1.2682028383103079 -0.13222715891795145 1.5067505663806151 85 95 255 705.600037 253.200012 1
0.18177387387329724 0.075453459251925675 0.44043697226310152 111 130 155 544.320007 354.240021 2
-1.4280751444742896 -0.17964220437898654 3.456899399843798 255 58 78 223.200012 267.839996 2
-2.0346296173267242 -1.3811153364755273 3.6340924938986436 255 194 204 167.040009 142.560013 2
-0.29451857694230754 0.45714282495401193 1.3827419795527518 255 117 121 303.840027 416.160004 2
-1.5172411863386932 0.090566897635420418 4.7524526346056764 161 255 161 262.080017 293.76001 2
-2.3706286964035486 0.169757368710444 3.7586131576916531 223 215 222 144 303.840027 2
1.2437400110111381 -0.12984546973544153 1.4807168648773663 255 79 91 707.040039 254.880005 2
-1.3497041992315171 -1.8773775230808789 5.7775588703617817 201 220 255 293.76001 164.160004 2
-1.7790598169518139 -2.0117489658965506 5.9906111946865392 201 219 255 269.279999 159.840012 2
-0.7467459217704131 0.29871891702164277 1.2746614944783556 255 115 135 159.840012 378.720001 2
-0.76295533552110384 0.27946016705676946 2.0643130729240826 255 109 131 243.360016 338.400024 2
-1.3312714833214296 0.33344349990006072 3.7766529610731707 154 149 255 249.12001 321.120026 2
-0.3524279712278624 0.49376867385998113 2.4567484736580294 186 131 255 329.76001 365.76001 2
0.87695566296509531 0.42409716968058719 1.4257585303973332 87 106 134 620.640015 401.76001 2
-1.9982176553236073 0.30444337992577963 3.5684466108074875 138 147 163 168.480011 322.559998 2
-1.505422787450216 -0.69681057640102639 3.7097770864941575 74 90 109 228.960007 217.440002 2
-2.1646219800354585 -0.87896706498875321 3.5525980486909092 255 226 229 151.200012 192.960007 2
-2.0375456930500913 -1.0877465839290581 3.6206733448205539 206 215 226 168.480011 171.360001 2
-2.1516158867487039 -1.1273456306512981 3.5721954764319599 204 213 224 152.639999 165.600006 2
-2.1556513623294675 -0.36407872176866773 3.5590537209369928 235 236 239 152.639999 249.12001 2
-1.9048831953020842 -2.1963875007663858 3.3195787260268754 179 255 99 162.720001 34.5600014 2
-2.2687069854151733 -1.567825614748884 3.7239751927055522 255 202 208 151.200012 126.720001 2
-2.0339067117477203 -1.7931828106794587 3.6080085991869426 173 202 255 165.600006 97.9200058 2
-2.1047432098422663 -1.7997935627760462 3.5495092261343792 255 140 166 155.520004 93.6000061 2
0.26703397141442164 -0.24368430332812646 1.0611079772731788 232 255 214 482.400024 198.720001 2
0.26786706601214472 -0.38027953001467069 1.0641480740742904 219 255 184 478.080017 151.200012 2
-0.4686703700267445 0.42717738684003992 1.1337908039270059 255 64 84 223.200012 430.560028 2
-0.44067357064806734 0.38785846743569485 0.6761474610414826 25 47 47 132.480011 509.76001 2
0.18154448929729583 0.049805437305147651 0.43517720321776887 166 255 120 542.880005 331.200012 2
0.17855237220839926 0.018800560749397534 0.47571348487688381 107 131 255 525.600037 302.400024 2
-0.19594107610224021 -0.68164305280541393 5.0411493870350235 116 131 153 368.064026 235.008026 3
-0.42332772308099553 0.40858843639847603 1.4633002547010225 255 92 95 271.296021 395.712036 3
-0.45683444111569682 0.29893301853750404 0.57311967827813859 195 193 255 81.216011 489.024048 3
-1.2191845137480533 -1.7139522293189469 5.2966714552220164 201 220 255 293.76004 164.160019 3
-1.7190448025874518 -1.9080207871663184 5.7712338673567274 255 190 204 267.840027 160.70401 3
-0.96354247221922718 0.74744478286156169 1.9933906640900205 192 193 193 200.448013 430.272034 3
-2.2814792557299639 0.16432549512742481 3.6217275020697164 255 225 219 143.424011 302.400024 3
-2.5472999658062059 0.51755065936955469 5.7140263618538816 88 96 110 212.544022 326.592041 3
-0.44940073891708021 0.30232359526204855 0.73356551052328789 192 193 192 148.608017 445.824036 3
-0.45265839497185212 0.45325034934551106 2.64662887498854 180 184 190 316.22403 352.512024 3
-0.41838274524375874 0.4228776969749985 0.85545393180895402 255 100 116 195.264023 476.92804 3
-1.4930168476008867 0.077285942851476969 3.3864411883005499 82 100 119 212.544022 295.488037 3
-0.34374109045075851 0.46764347024426489 2.3650808325414574 169 180 99 328.320038 364.608032 3
-0.75340186622658578 0.3007276762670843 1.2803669634037644 139 255 86 158.976013 378.432037 3
-1.4270077382537547 -0.58345977402163729 3.5678057453466918 99 118 255 229.82402 226.368027 3
-1.8539197207518456 -1.838770761230349 3.4703365781121565 122 155 194 176.256012 82.9440079 3
-2.2384327681531277 -1.8980277433546004 3.7673146769524033 255 137 164 155.52002 91.5840073 3
1.3193437771322978 -0.038479207558885897 1.5663880019050169 64 82 97 708.480042 278.208038 3
1.2542513803237094 -0.13308428921108501 1.4939792903043254 101 255 68 706.752075 254.016022 3
0.26363270668525618 -0.2056846930440161 1.0488358319947193 221 228 235 480.384033 212.544022 3
0.26156547317213796 -0.28466595925593441 1.0751139129040632 210 219 229 480.384033 186.624023 3
0.25748401582761438 -0.024865939122815338 1.0220561987610521 255 99 122 483.840057 279.936035 3
0.27261959927945401 -0.63803790535780414 1.2130129489552586 202 255 157 470.016052 84.6720047 3
-0.45446351385838701 0.3931841350950212 0.69668966057846593 53 53 255 133.056015 504.57605 3
-0.28486400866765571 0.44774012827541787 1.3557958345658672 92 98 119 300.672028 414.720032 3
0.17971515030283425 0.04959750806535846 0.44350735267244623 164 255 120 542.592041 330.048035 3
0.18072701772031063 0.076141571585326931 0.44521984184061614 155 255 113 542.592041 354.240021 3
-2.0704664374033355 -1.1092280240561694 3.6770826530234979 255 206 215 167.616013 171.072021 3
-0.42212730216329941 0.31884891151934891 1.9789963991251995 131 141 158 300.672028 348.364838 4
-1.2090180460457645 0.057010079736540556 3.8019124676159857 159 165 255 261.273651 292.377655 4
-0.38074764856248766 0.49709053293562855 2.5299139921112501 255 171 180 327.628845 364.953644 4
-0.59948442888825215 0.093626525769023292 3.8021666217007484 98 125 255 325.555237 296.524841 4
-0.29841378798650364 0.45618783781075672 1.3937538534274072 133 255 96 302.745636 416.793671 4
-1.856676423568981 -2.0546071333006024 6.1900219375251364 255 196 208 267.494446 161.740829 4
-1.5244382774024334 -0.19837860939539204 3.6486517269852299 82 100 255 221.875229 267.494446 4
-2.0765688589703553 -1.1269315932617496 3.6591867488975409 214 225 255 165.888031 170.035217 4
-2.2445621584365409 -0.53842073229058018 4.6895620196855496 104 122 255 201.139221 240.537628 4
-2.1036082616120946 -0.35088256895002484 3.5188080325906568 237 240 255 153.446426 250.90564 4
-2.1541191897422887 -1.8503287204804821 3.6289615561940858 255 140 166 155.52002 93.3120117 4
-1.9897341172822154 -1.3483726014581849 3.7010737912350513 218 255 189 178.32962 147.225616 4
-2.2468644847340764 -1.8300043151199481 3.6946152153606886 255 152 174 151.372818 97.4592133 4
1.2255465768576712 -0.12281064051997223 1.4514047065259374 255 76 88 707.097717 255.052841 4
1.2517844519565857 -0.79128854756953038 3.3489811796233409 231 255 206 526.694458 201.139221 4
0.26903044158990519 -0.24257201554897978 1.0583688439942014 222 232 255 481.075256 199.065628 4
1.2211984164561982 -0.77037343902961974 3.2463762589758258 229 255 203 526.694458 192.844833 4
0.27739562409026464 -0.28464259062161801 1.0669746013762591 219 229 255 481.075256 186.624023 4
-0.43618145242765816 0.41130054488731727 0.90860198458169816 255 76 96 203.21283 460.339264 4
-0.43170609220659451 0.2915906713767028 0.70410686501376607 255 185 186 147.225616 447.897675 4
1.2675004040622424 0.093740829097454126 1.5141091862215543 108 127 255 705.024109 315.187256 4
0.23519184260653248 1.6209383678292932 9.5745949694144574 104 255 75 398.131256 353.341492 5
-0.84520749424030894 0.22251848406330088 2.4720975131598668 142 145 141 248.832031 320.993317 5
-0.97622839999506716 0.43986974880220958 1.7962669021894193 255 165 171 179.159058 380.713013 5
-1.6155742123124694 0.26121331802573589 2.9349138430431698 157 255 124 174.182419 325.969971 5
-1.7338623305102505 0.19591366587677805 3.6959804390475166 255 93 84 199.065628 308.551727 5
-2.1007176868800297 0.10857865722033391 4.0566197202962577 244 255 234 186.624023 298.59845 5
-1.6187787809090652 -0.21851611426385736 3.7637984785021246 80 99 255 221.46051 266.250275 5
-2.0697680041195259 -1.1266351266652297 3.6389513619062273 225 255 205 166.717468 169.20578 5
-2.1472966302331065 -0.35861952507559869 3.5828585167125651 240 255 234 154.275864 248.832031 5
1.2695944549658771 -0.13180185956408411 1.5099818351316832 114 125 255 709.171326 253.80867 5
0.26957236492291226 -0.24828204748920507 1.0791671000541114 232 255 214 482.734161 199.065628 5
-0.48881975976930825 0.42991052457842877 1.1511936038947079 102 105 255 221.46051 427.991089 5
-0.93401555649204226 0.40930528478683958 1.3187552697085927 255 137 147 111.974419 413.061188 5
-0.44366262315480909 0.41257108994007979 0.925456756528239 127 134 255 201.553955 457.850952 5
-0.4554010328797391 0.38767971261885092 0.69840474734960467 46 255 22 134.369293 502.640717 5
1.2223207351094207 0.078336356085348474 1.4395679997434028 129 255 98 706.682983 313.528351 5
0.95918622977570178 0.29506950203528842 1.5146890428001034 113 135 255 629.545044 363.294769 5
1.2455984395052966 0.33032276383007575 1.4758443410143649 119 255 86 706.682983 368.271423 5
15.273766369802832 -10.904280834644515 24.486265460753771 255 68 93 619.591797 116.951057 5
-1.7076908142807472 0.098989607385942563 3.3212633807407568 223 232 255 185.131042 301.584442 6
-0.30045609909875237 0.46036474847601178 0.92388341681418451 255 20 28 259.78067 477.757538 6
0.37726963334371882 -0.49678231375021042 1.121704955111801 184 208 255 513.589355 113.467415 6
-2.2125492720313851 -1.9049037529686439 3.7030796123951735 255 136 163 155.271194 89.5795364 6
-2.3217669836272865 -2.2221948578516479 3.8082344691094985 153 189 255 149.299225 62.705677 6
-0.39798108182340308 0.40059858891172573 0.81056017125437152 109 255 109 194.088989 477.757538 6
1.2326761462596911 -0.060994462694928045 1.4666369350836175 72 92 110 704.692383 271.724609 6
1.2660803063922423 -0.12798167869551158 1.4955765945200028 255 82 95 707.678345 253.808685 6
-1.0631342940820945 -0.62860513324149869 3.2834799001256498 255 203 205 259.78067 209.018921 6
-1.7948347684567061 -1.814407625095855 6.7882593856482751 232 255 223 286.65451 185.131042 6
-0.47038633063558244 0.41372394490235143 1.2836199960822456 195 198 198 244.850739 412.065857 6
1.2413588822390662 0.080281854333348918 1.4726580699611374 96 107 125 704.692383 313.528381 6
-1.7127703846981635 -0.43580920239945004 3.5658877316691142 93 108 126 200.060959 241.864746 6
-2.0900734807471513 -0.35107671278826114 3.5307461003954286 255 235 237 155.271194 250.822708 6
1.2133683473372565 0.3168625919074104 1.4332965871964243 86 97 116 704.692383 367.276093 6
0.11114067330266608 -0.075293887574526749 1.2875432356143313 243 245 255 421.023834 265.752625 6
-0.50704420650687632 0.31036534281532907 0.68095273356030828 124 255 83 98.5374908 462.827606 6
0.18214232765932881 0.098337145795396791 0.42717053059886401 255 118 135 543.449219 376.23407 6
-0.41333938155720529 0.35520081984564039 0.64246442556522043 255 34 56 131.383316 504.631378 6
-0.39039299685476569 0.3558346412625506 1.5506309497733766 128 255 160 286.65451 376.23407 6
-1.9196601755218676 0.053866421627024832 5.9717093390624321 255 130 133 259.78067 289.640503 6
-2.7830864331607827 0.17600489439547962 4.301784895371668 226 222 231 140.341278 301.584442 6
-2.2136163215320188 -0.29532307301373151 4.9466746380272744 108 255 69 218.574081 265.155426 7
-0.24993979368560648 0.40007998093118224 0.71649880273667432 255 76 76 247.239532 498.062256 7
-0.27485457757346876 0.43136249972910334 0.86848033934411917 37 47 255 261.572266 476.563141 7
1.5710328493813124 -0.14230566805420908 3.9462016914194233 149 173 255 541.060425 272.321808 7
0.36766423744124554 -0.50231620471710825 1.0919374233864021 163 183 209 512.394958 118.244995 7
-1.5641564309317162 -0.36030095329884448 7.1733903719584786 141 150 168 300.987244 268.738617 7
0.18133690537832736 0.10017008284669512 0.43269308845013776 119 135 157 544.643616 376.23407 7
-0.30546199376151284 0.46628735760336415 1.4568784063436453 149 149 155 304.570435 412.065887 7
1.7520696704187602 0.13896230081297145 4.2432130102676853 102 124 147 548.226807 297.404083 7
-1.3964743118839422 -0.70382841920438943 3.4756110736053349 90 114 255 225.740448 214.990891 7
-1.6317663518997021 -1.6792016732927975 6.2314832152324886 231 255 220 286.654541 182.742264 7
-0.48531614556301172 0.30269931012182683 0.75307565488888129 195 195 195 136.160904 444.314514 7
-0.41200108856824968 0.38639015350824157 0.87051314018162285 126 140 143 200.658173 458.647247 7
-2.0601199045333036 -0.48376190390687335 4.3299137459044523 91 106 125 200.658173 243.656357 7
-2.0030724073190491 -0.33359601944828932 3.3773511995180923 240 255 235 154.076813 250.822708 7
-0.45595585338683176 0.48082511879560413 3.4411702716611856 202 198 255 333.235901 343.985443 7
-1.4039442225163574 0.21382850002394133 2.4928056266372405 187 186 255 161.243179 318.903168 7
-2.0381718745011836 -1.0947372395768553 3.5828834860530558 204 214 224 164.826355 168.409531 7
