ply
format ascii 1.0
comment Written with hapPLY (https://github.com/nmwsharp/happly)
element vertex 75
property double x
property double y
property double z
property uchar red
property uchar green
property uchar blue
property float ix
property float iy
property uchar octave
end_header
-0.150965537386202 0.20620766241400235 0.52784415672453111 175 255 42 274 439 0
0.52283811817206383 -0.30727684972105784 0.73529667267344312 255 202 216 655 127 0
0.18403096042150358 0.15207936147498469 1.9637022040410699 249 252 255 421 317 0
-0.1395937032291199 0.19648892379397243 0.47837673309218864 177 195 255 273.600006 445.200012 1
-0.14131537581978426 0.19745284567010479 0.48392590270056868 176 195 255 273.600006 444.960022 2
0.50482626774796091 0.53222105794686225 0.79461381305004686 255 228 219 627.840027 547.200012 2
0.039821770860241745 0.67635823646569637 1.4421943838545035 39 255 13 394.560028 469.440033 2
0.54451848552716964 0.41059572054631444 0.68253388145110705 224 226 225 688.320007 519.840027 2
0.35630207031655714 0.74721337689049117 1.1491353769575783 186 178 255 505.440033 540 2
-0.22968808973371146 0.70557876085795979 2.4750884524776291 255 165 178 347.328033 397.440033 3
0.49500043791929071 0.30128769483624396 0.74609491711987097 255 192 197 635.904053 444.096039 3
0.49505356820989288 0.59629376030996539 1.6201640603155383 197 255 167 502.848053 428.544037 3
-0.17174249642595818 0.67577988052197391 2.9824967851934332 173 255 185 362.880035 378.432037 3
0.40986525225953918 0.700304413447987 1.2202249914833025 121 255 66 514.944031 508.032043 3
0.57026338132484655 -0.34579851803344175 1.0423913922718162 241 255 235 594.432068 158.976013 3
0.56036636819897012 -0.32023868363813479 0.72812983875467197 202 215 230 680.832092 117.504013 3
0.28751497377485324 0.86049846040040423 1.9088471747057945 13 24 40 444.096039 461.376038 3
0.49018755810645165 0.052828021407374415 0.86620127016167814 255 245 249 599.616028 314.496033 3
0.32425531594105572 0.25224544986575381 1.4857328625575246 246 255 241 466.560059 352.512024 3
-0.34577079646680398 0.70826904633883592 2.2502999109525481 255 100 192 323.481659 410.572845 4
0.49169448578893493 0.29988894696198498 0.74591563833513419 103 131 132 636.595276 439.603271 4
-0.63992816232836303 0.57237583784168233 2.3936815146388248 255 167 184 279.936035 375.321655 4
-0.14787697711981718 0.60100104430953838 2.5865971376904184 172 255 185 362.880066 377.395264 4
-0.24614444918750245 0.70732568237346971 3.1318456822131466 218 217 213 352.512054 375.321655 4
0.51722965670795196 0.60316765547563067 1.6864179059000897 255 168 182 503.884857 427.161652 4
0.5307016969705356 -0.12970306740270399 0.7359626671487618 255 235 240 659.404907 217.728027 4
0.53655192833377274 -0.32456355753279453 0.9509563619172452 255 233 235 603.417664 157.593628 4
0.53624579354679192 -0.32550162417528394 0.98134101272078933 255 234 236 595.123291 159.667221 4
-0.34109567987797185 0.679590761477745 1.0603865860458743 154 176 255 257.126434 530.841675 4
0.11037872354005396 0.17398298486601682 2.4103571975501223 245 249 252 400.204865 317.260834 4
19.600437794609931 -31.458079900245096 58.01750094537222 180 201 223 516.326477 82.9440155 4
0.54282740137721164 0.051726010139018452 0.67727271617231022 255 245 248 691.753052 316.016693 5
-0.15771591085593073 0.64145183323541843 2.771580614290885 255 174 174 363.294769 375.736359 5
-0.11312271683482411 0.76570282049151217 2.9217071954968077 70 77 85 368.271423 388.177979 5
-0.19040046230831642 0.78610636457347027 3.1127135798066341 197 255 204 358.318115 388.177979 5
-0.47108541915269164 0.69525083407815913 3.0605716667766121 255 112 198 323.481659 375.736359 5
-0.26201444364193271 0.68419294735262381 2.3150905199189795 168 207 214 340.899902 400.619568 5
-0.22800840801582467 0.72996081753034225 1.534649097920922 255 10 75 323.481659 470.292542 5
-0.20136526605413474 0.69567171119253857 1.6051086426735131 255 142 216 335.923248 452.874298 5
0.45949117896080915 -0.26837008766055925 0.80369807540607141 233 235 240 604.661865 156.764175 5
0.47944855297118227 0.11627705289745593 0.8370190321429547 250 255 243 602.173523 343.388214 5
0.03120191684873852 0.23631569081011605 1.7447628880945327 245 249 252 388.177979 340.899902 5
0.52603803523658499 -0.13926103384410293 0.90734351500639399 247 248 255 609.638489 228.925476 5
-0.5166188053257299 -0.23787430607226678 1.0932905160702964 255 81 91 203.046951 203.046951 6
-0.14960915950869502 0.68887038817347346 1.4436926381906181 255 227 231 343.388214 468.799591 6
-0.26282500387478613 0.67897101354230838 2.2588896369547582 199 219 221 340.402252 403.10791 6
-0.25933447265260368 0.54139291709523052 2.0559242006682794 180 207 209 340.402252 385.192017 6
-0.2114591400919319 0.70923671495850948 1.6326918971584439 215 255 131 334.430267 453.869659 6
-0.42902938226849407 0.88433224281089506 2.0013913647812078 7 81 100 304.570435 453.869659 6
-0.46967657298628218 -0.58069986097840998 1.0681532682902253 176 255 73 214.990891 74.6496124 6
-0.32547931638890581 -0.17669976431411882 0.7709814300871507 145 159 178 220.96286 206.032928 6
0.74295442560158254 -0.43823259264792558 1.3021685043081854 237 241 255 597.196899 155.271194 6
0.31708383491279313 0.34048604952087369 1.5728268643908532 255 189 182 459.841614 373.248077 6
0.11103799123686864 0.18008963395084443 2.3026859768603316 245 249 252 400.121918 316.514374 6
0.50254538989084097 0.22721488013872193 0.82237763179371104 141 255 96 618.098816 400.121918 6
0.40464154992696155 0.54614973071463879 1.760657839238875 255 205 205 471.785553 406.093903 6
0.48598670628767215 0.41998783210152757 2.1799234929540043 255 241 241 471.785553 358.318146 6
-0.33576436164185219 0.49908853508070861 2.1210612732629102 205 255 93 322.486328 376.23407 6
27.971543085845255 -28.514491570769067 70.547094101353665 233 255 210 534.491211 134.369308 6
0.16640952493728323 0.19588081621096531 2.564352279756104 249 252 255 401.316345 318.903168 7
-0.25715759926024262 0.62492904809941896 2.060251003650742 220 220 255 333.235901 397.733154 7
0.53537124267224856 -0.33046130799686857 0.97886930802895566 241 255 236 598.391357 154.076813 7
0.48332636562790099 0.04359445263130679 0.86899688236283268 252 255 245 598.391357 311.736786 7
0.57566124221799919 -0.33156235009553869 0.75245516492777487 198 212 229 680.804504 114.661812 7
0.50269228509624275 0.23402791336005579 0.77343340034640118 224 255 222 634.223145 404.899536 7
0.38600234582799442 0.33430066205381825 1.7073605819538926 241 241 246 472.97998 358.318176 7
0.090835854296389407 0.54665708126205015 2.3609928067695751 208 208 255 401.316345 379.817261 7
0.1633776366657036 0.6912106652715817 3.9322049436213966 237 243 255 401.316345 361.901337 7
-0.21819803089516876 0.74270944764744318 1.7331246500499065 201 202 255 333.235901 455.064056 7
-0.28277022781445593 0.60103669323799247 1.80596947164375 193 255 69 322.486359 419.232239 7
-0.15869112819346576 0.73621951865620794 1.4991892142317758 255 227 233 343.985443 469.39679 7
0.47162165958340307 0.75532187165448805 1.6608025900019499 179 255 145 494.479065 465.813599 7
0.32621678472740379 0.61708683142640508 1.4323057620619366 163 174 191 472.97998 447.897705 7
-0.15073645262229807 0.57964469386243245 2.4758577958134813 184 184 255 361.901337 376.23407 7
-0.10369283821366881 0.53062761692789184 2.8811144072762591 241 246 255 365.484528 358.318176 7
