ply
format ascii 1.0
comment Written with hapPLY (https://github.com/nmwsharp/happly)
element vertex 175
property double x
property double y
property double z
property uchar red
property uchar green
property uchar blue
property float ix
property float iy
property uchar octave
end_header
1.3154589004003516 0.50198918668215442 1.955535741931703 255 136 138 643 385 0
0.39441682818853918 0.50497891416748164 1.6660805668384033 203 205 209 476 406 0
-1.2195399835130867 -0.70631342670924335 2.6755733023208315 85 110 138 208 186 0
-0.5225338430640516 -0.35313931130698617 2.2982311693476856 255 228 236 295 229 0
-1.1977408065558426 -0.47152225573317297 2.2521484537938026 236 241 255 181 208 0
-1.5743776353642618 -1.1258054962443773 2.549783864643941 255 216 221 147 118 0
1.6767602324024984 0.053680450092255812 1.8497907436868957 245 249 255 733.200012 301.200012 1
-0.68550004088493166 -1.0257098899851043 4.8303197801965769 233 236 241 328.800018 207.600006 1
-0.79295736488942437 -1.4795687464363516 4.7992466284553252 233 255 203 322.800018 168 1
-0.59968084160748214 -0.39471137407137991 2.5807477796518796 255 228 236 295.200012 229.200012 1
-1.4809428177020969 -0.28537241815855852 2.409877485741049 255 240 242 147.600006 243.600006 1
-0.79720031492426813 -2.0595654651365076 5.3458344897455534 255 184 206 327.600006 139.200012 1
-1.4664083026393646 -0.89840709711372435 2.3660040621927867 218 230 255 145.200012 141.600006 1
1.4229570942219063 -0.73495157083116425 2.2130238453194582 255 208 219 631.200012 159.600006 1
1.3487422246811855 -0.85193321920335319 2.1104595354236948 255 189 207 631.200012 134.400009 1
-1.1580864946456644 0.3354293282712203 1.8887395349745546 255 228 229 151.200012 355.200012 1
0.10927442690478895 0.28714098340820854 6.0989563502786188 255 118 137 391.200012 307.200012 1
1.3818004627437839 -0.70715214697781825 2.1354164470247281 232 255 208 630.720032 159.840012 2
-0.38082775425998983 0.50294495003982131 2.3859726145657341 232 255 231 322.559998 367.200012 2
-0.51391323165842939 0.38679890571990816 2.2346549283103765 255 112 119 295.200012 355.680023 2
1.492050542201889 -0.7222588068132435 1.7182729190382977 201 222 255 717.120056 125.280006 2
-1.3271734095361944 0.30807677008755713 2.0791374308716821 193 255 227 138.240005 344.160004 2
-1.2263158368405946 0.17267203779302601 3.1610076194743693 85 255 42 234.720016 306.720001 2
1.2842788130117724 0.48719147189174716 1.8921970339794436 255 136 138 643.680054 385.920013 2
-0.49039131743772213 0.32788733114098112 2.3901307870735966 255 218 219 303.840027 341.279999 2
-0.70558715971995145 -0.57448983575459467 2.3078945481046196 232 255 233 266.400024 192.960007 2
-0.91472045007765734 -0.12839829625936994 2.7565763743171692 185 187 189 256.320007 270.720001 2
-1.3156564851510346 -0.13963027931977467 3.1551010364726357 255 71 93 223.200012 273.600006 2
-0.54943102568905422 -0.36421914494328689 2.3803400194841604 255 228 236 295.200012 228.960007 2
-1.181964866833257 -0.54731624733561979 2.20527837701214 235 239 255 181.440002 192.960007 2
-1.4213914027197192 -0.56885349822234632 2.3082041821233061 240 255 235 146.880005 192.960007 2
-1.2196847007513458 -0.70626814418546024 2.2642816565423969 216 224 233 180 168.480011 2
-1.2491127556825705 -0.27354166724662349 2.2986447751996906 255 241 243 175.680008 243.360016 2
-1.2622605719518036 -1.4762667114504509 2.3355684486918564 203 255 129 178.560013 46.0800018 2
-1.3908181875458134 -1.368989465544117 2.2472306317098738 173 206 255 145.440002 54.7200012 2
-1.2428224740841842 -1.0345792975476567 2.3383824723616193 195 208 223 180 118.080002 2
1.0871244898051409 -0.56031562623846398 3.0352729878867581 237 243 255 521.280029 220.320007 2
0.30317154282148207 -0.69132853139156314 4.7258113268889836 161 173 171 408.960022 228.960007 2
-0.9811914334881946 0.52226688084512873 2.9327428575619852 97 255 100 254.880005 357.120026 2
-0.94935040483237332 0.33392525231496556 2.0073818004293189 255 33 37 203.040009 351.360016 2
-0.97580504959059455 0.2838919284221848 1.5940644098017147 255 223 222 151.200012 354.240021 2
0.26361790539319996 0.43542190183976659 1.7246769709629457 206 208 211 444.960022 387.360016 2
0.42163685226745873 0.47792073708185573 0.83545392107577277 101 101 255 577.152039 506.304047 3
-1.3019783806748588 0.29026130408731421 2.5460996956350526 104 115 128 188.35202 331.776031 3
-0.57088343309799017 0.40187218421703991 2.4467895652645013 255 120 127 295.488037 354.240021 3
-0.018987570748487448 0.49614161213511215 2.0809567280626351 221 255 212 378.432037 380.160034 3
1.1482622133005693 0.34252683088784136 1.941651820620788 255 123 135 611.712036 352.512024 3
1.596522228484929 -0.29066066345617059 1.8153433323148556 244 255 239 722.304077 226.368027 3
-1.2263158368405946 0.17267203779302601 3.1610076194743693 61 83 255 233.280029 307.584015 3
-1.2434395568519023 -0.40419238186936357 2.8481154350292055 86 106 132 216.000015 236.736023 3
-1.4213914027197192 -0.56885349822234632 2.3082041821233061 234 236 240 148.608017 191.808014 3
-1.4494025081311244 -0.66140315956614382 2.363881158377056 240 255 235 146.88002 179.712021 3
-1.2512180702350508 -0.16148959739974844 2.3131044928205973 246 255 244 174.528015 259.200012 3
-1.2491127556825705 -0.27354166724662349 2.2986447751996906 245 255 241 174.528015 243.648026 3
-1.4343981756865531 -0.97350741708464295 2.3258610359101586 230 255 214 146.88002 126.144012 3
-1.232668010545011 -1.0154465463219184 2.2923085764350684 255 196 208 179.712021 117.504013 3
-1.4001997320633284 -1.0133073088327007 2.2806442327121088 215 220 229 148.608017 117.504013 3
1.3818004627437839 -0.70715214697781825 2.1354164470247281 207 219 232 632.448059 160.70401 3
0.3012755196950665 -0.69319524293870571 4.6776821580565482 171 168 255 409.536041 229.82402 3
-1.0617987155758724 0.36508169855098732 1.9862576068952253 255 233 234 179.712021 359.424042 3
0.14950752380271148 0.46616153826238915 0.75159707457167624 61 80 255 457.920044 525.312073 3
1.2597710021904285 0.50262752456173043 1.6188570645026745 35 255 22 682.560059 407.808044 3
0.24075028268151799 0.82223818753050681 16.791430585550525 159 255 112 390.528046 305.856018 3
-1.2379681718798978 -1.2506442587115143 2.2946998830956664 148 179 211 176.256012 79.4880066 3
-1.3162340041370757 0.30767939308853631 2.0542195623691049 226 211 188 136.85762 344.217651 4
-1.0035345549681289 0.4140393217114533 2.066968692984831 230 232 231 196.992035 362.880066 4
-0.30482394723280448 0.44923795656956156 2.0127858037806865 236 236 255 321.408051 375.321655 4
-0.36458279324038179 0.4155893554060428 2.1522736283223196 230 230 255 317.260834 360.806458 4
1.0495386430311884 0.45164061757785939 2.9140402721000802 68 255 50 526.694458 348.364838 4
1.0238934723902204 0.20843032860348648 2.7976455917075107 120 130 142 524.62085 319.334442 4
1.1244907407798252 0.47066384617419499 3.6780636478188802 255 102 105 503.884857 337.996857 4
0.66892783556367585 0.5700824892852101 2.9407210343397514 145 255 117 470.707275 367.027252 4
-1.1828186678175956 0.17112751597024473 3.0278417321409572 85 255 42 234.316833 306.892853 4
-0.78690705401543903 -0.94447672453159415 3.1650552934001874 228 255 223 286.15683 170.035217 4
-0.74903858017585856 -1.4320529629153955 4.5724247669456606 218 232 255 321.408051 167.961624 4
-0.7560425904254906 -0.10953328275405283 2.3308308421210042 255 196 199 255.052841 269.568024 4
-1.6385975482597352 -0.17783395450504813 3.9349936808919246 255 71 93 223.948837 273.71524 4
-1.5111597691576004 -0.68837233709431345 2.4635209525827517 236 239 255 149.299225 180.403229 4
-1.2541805184232362 -0.27386578093696357 2.303025014114183 241 243 245 176.256027 242.611237 4
-1.4088943962374669 -0.27542657972572604 2.2935751765507169 242 245 255 149.299225 242.611237 4
-0.78901771888894512 -2.0149481144596244 5.2327552234073176 207 226 255 325.555237 141.004822 4
-1.2622605719518036 -1.4762667114504509 2.3355684486918564 129 163 203 176.256027 45.6192055 4
-1.4380636862342406 -1.4134831344924863 2.3373106547502012 172 206 255 145.152023 53.9136086 4
0.89885795341682673 -0.61549891973257742 3.133124210716808 236 242 255 497.664062 213.580826 4
1.3117147134716873 -0.67394311418602737 2.0027881933336489 208 219 232 632.448059 159.667221 4
1.5342142120339739 -0.8553061822215754 2.0018463946000131 255 208 216 675.993713 126.489616 4
-0.060254426699066554 0.52678500759236568 0.82311226117707381 136 159 167 356.659241 534.988892 4
-0.75474072774115131 0.50632681580436179 1.1903523034608732 136 149 169 136.85762 449.971252 4
-0.47781695208272046 0.55262476450810705 1.9122303221929569 62 86 104 292.377655 400.204865 4
-1.1812354219359924 0.33901619000863692 1.9177606495376249 229 227 255 149.299225 356.659241 4
0.86578970341802686 0.49281603327906476 1.1402753360539721 255 219 219 671.846497 454.118469 4
0.217888830622194 0.50772217633087924 0.82751069984107239 255 221 222 487.296082 526.694458 4
0.86729434139899453 0.46150552418673196 2.5401505956865211 178 255 149 514.252869 356.659241 4
0.78050018746468131 -0.60637507855670247 3.4434900832301842 235 238 243 468.633667 221.875229 4
-0.99093853800845189 -1.7429958336182698 4.3213464229543765 224 255 178 294.451233 132.710419 4
0.78709915988711143 0.33394357981198342 2.5539344568818736 88 84 255 497.664062 338.41156 5
-1.6280856571463609 0.31545768691445797 2.6619704609130217 187 192 255 149.299225 338.41156 5
-1.4555054992723386 0.22885034187061948 2.251658840944772 102 255 195 134.369293 325.969971 5
-1.2149496329400051 0.17444808965091807 3.1051510543894354 60 82 255 233.902115 306.063416 5
-1.1144189272289697 -1.9584048289193774 4.9166401118784915 179 203 224 296.110107 134.369293 5
16.151661848508901 -18.918022504185885 33.160880767439231 255 141 175 567.337036 72.161293 5
17.346640277784445 -18.339801663010313 31.728726135185234 130 168 208 592.220215 62.2080078 5
1.3644995965696021 -0.68795740999476207 2.0891885570753397 232 255 208 634.521667 159.252502 5
-0.75183829505374433 -1.9177362289653539 5.0093335476379917 207 226 255 325.969971 141.834259 5
0.57111729075221362 0.4903907616618351 1.2625414239162458 150 149 255 557.383789 432.967743 5
-1.2580127335762912 -0.80165333670779459 2.3160585115005468 209 219 231 176.670746 154.275864 5
-1.4001997320633284 -1.0133073088327007 2.2806442327121088 219 228 255 149.299225 116.951057 5
-0.53709612862152012 -0.4856004672814247 2.2846475847105281 232 239 255 293.621796 206.530594 5
-0.70304274101114528 -0.66034852070616212 2.327866869214255 213 255 209 266.250275 179.159058 5
-0.76514335274122303 -1.428138929972292 4.5426736616082231 202 218 232 320.993317 166.717468 5
-1.1582651555405734 -0.14334372793619179 2.3002183766461344 255 127 142 191.600662 263.761963 5
-1.3417607431043863 -0.22100749457097513 2.1997358821726443 242 245 255 149.299225 243.855392 5
0.78747401298700526 -0.52569770475830557 3.5542017756117668 255 243 244 467.80423 231.413788 5
-0.92728975246082612 0.47678139128666741 2.8585713286648353 77 80 80 256.296997 353.341492 5
-0.37150376514796246 0.35136816258095965 0.640748015843013 255 34 52 159.252502 497.664062 5
-0.7995453726044448 -0.1184554349213835 2.4310524564441773 205 207 207 256.296997 268.738586 5
-0.54948457914931081 -0.35866938128605169 2.3750760405639419 236 243 255 293.621796 228.925476 5
-1.4313335636132938 -0.4335347174191424 3.279179292628096 86 106 132 216.483871 236.390427 5
0.21253329224115536 0.48807232821490876 0.78425273067316459 255 220 221 487.710785 525.035583 5
-0.49485548906945143 0.33397939279244837 2.4738000534819644 217 255 222 306.063416 340.899902 5
-1.3069391224529929 0.43005311967491233 2.4723095649270719 255 236 237 179.159058 358.318115 5
-1.5717482321919243 0.41667951756892985 2.5920325091794414 209 201 255 149.299225 353.341492 5
1.278595979913798 0.48532011631741251 1.8846999225000487 133 255 135 646.963318 385.689667 5
-0.56080728786426048 0.18247605558365732 2.4888275406613976 206 255 173 298.59845 318.505005 5
-1.4273831414271996 -1.4123140711538915 2.3217242123750923 206 255 145 146.810898 54.7430496 5
1.0376769160813297 0.20632735590191931 2.8892331719359641 140 147 255 525.533264 316.514374 6
-1.2219946131571975 0.16875516979203276 3.0956127131204845 50 69 91 232.906799 307.556396 6
0.49727403245450863 -0.71594665064963914 4.5727715795709472 139 160 180 424.009796 226.93483 6
-0.82863283748825856 -1.4907312720084724 4.7283258687992573 255 202 218 319.500336 167.215134 6
-0.76394904195669477 -1.0518921804046171 4.9554644438277107 236 241 255 325.472321 206.032928 6
-0.13807566681420047 -0.032491308809765584 6.6169105006959157 97 119 139 376.23407 286.65451 6
-1.1030138461351533 -0.13861956944005774 2.2164705304362391 165 174 185 188.117035 262.766632 6
-1.8404714711604693 0.47747548901401804 2.1572324863151993 255 112 113 59.7196922 373.248077 6
0.46283696995310852 0.53635109577008455 0.90107019826861645 88 88 255 585.252991 516.575317 6
0.20035605321775907 -0.61995486059295479 5.3479560096678673 69 75 255 397.135956 244.850739 6
27.7042281465332 -28.754112376129392 73.037552767910384 199 212 227 528.519287 137.355286 6
-0.80197145068804865 -0.64943075445342979 3.1856254309348415 223 232 239 292.626495 206.032928 6
-0.96789865606629899 -1.1069275612301854 3.8249177852683518 228 255 223 286.65451 170.201126 6
0.72013307267454196 0.51957936529776894 0.90637261247657674 62 67 255 689.762451 507.617371 6
1.4846766905643225 -0.79551304810612666 1.9612766454886272 228 255 203 674.83252 125.411354 6
-0.39037229364711434 0.36212829902899335 0.69434658522960691 132 30 255 173.187103 492.687439 6
1.2313957232574364 0.46170459141488296 1.7915500469980419 127 129 123 644.972656 388.177979 6
-1.1422176040646472 0.37449695688216167 2.1320733431849677 255 226 227 179.159073 355.332153 6
-1.1959698192830963 0.36150308661541769 1.9788419747882129 189 255 163 158.257187 361.304138 6
-0.50069413854398492 0.38951995799701117 2.2370571769388246 170 255 137 298.59845 355.332153 6
-0.78996967086479808 -0.12004166193195773 2.3868935032764544 224 224 255 253.808685 265.752625 6
-0.5290493978015558 -0.35203389701032584 2.3204429793694916 228 236 243 292.626495 229.920807 6
-0.4983279260443787 0.31762895796614332 2.4211728903996743 255 213 215 307.556396 340.402252 6
-1.4502830744998541 0.15186547095324879 2.2329772284348097 247 255 238 134.369308 307.556396 6
-0.37865811273661665 0.47626493480099774 2.4049056894081455 232 255 231 322.486328 367.276093 6
0.89477893726653457 0.36652039323239544 2.3676379854701688 136 255 174 522.547302 346.374207 6
0.68093372126742802 0.37830767880943078 2.7173519050993162 142 159 255 477.757538 340.402252 6
-1.0996811114071319 -1.9187254228088815 4.8639794708443551 255 181 204 295.612457 137.355286 6
0.7904335902659132 -0.52614774957591015 3.5430166044973586 244 246 255 469.39679 232.906799 7
-0.52903471451941808 -0.48673888900800943 2.2582080307180954 239 255 223 290.237701 207.824539 7
-0.708398281813857 -0.66366965193037619 2.3369627342659189 209 212 255 265.155426 179.159088 7
-0.41091965895565186 0.48675775952724454 1.6952176829015793 147 255 96 286.654541 397.733154 7
-0.89889409312515545 0.45358011137757792 2.7701624975173234 65 66 255 257.989075 354.734985 7
-1.223564821458377 0.37479153696655898 2.0338712209047549 230 230 255 157.659988 358.318176 7
1.1982045216163644 0.4535045518863281 1.819275951697902 133 125 255 641.389526 386.983612 7
-0.8734318990103187 0.45917575274542305 1.1133477052970404 181 255 183 78.8299942 447.897705 7
-0.71632361128420996 -0.12046616347367042 2.1742971857736868 208 255 205 254.405899 268.738617 7
-0.94098028580856052 0.36507542580119412 3.9367558994764522 182 203 255 293.820892 322.486359 7
0.11445546732597789 0.17902420956075094 4.9571037924639443 142 255 100 386.983612 300.987244 7
0.97171850164104623 0.47895921454935458 2.0884662461962966 107 255 99 558.976318 369.067719 7
-0.15040937179522862 0.45271345455585926 1.8744191627422335 255 236 236 351.151794 379.817261 7
-0.2717160717133793 0.338655532592191 1.6542652765688399 229 255 232 322.486359 365.484528 7
0.24424925583496426 0.41059962378858439 1.565955618609006 224 224 222 444.314514 390.566803 7
-1.6778946751645512 0.34257630742101175 2.7182474037061253 200 255 223 150.493622 343.985443 7
1.3714370023936278 -0.68843805088839938 2.1128308686946475 232 255 206 634.223145 161.243179 7
0.20862460019310558 -0.53635775961609455 4.6831829530201379 66 75 255 397.733154 247.239532 7
0.91659780904500487 -0.60124513850303052 3.1972749606338509 241 255 230 490.895874 211.407715 7
-0.86646160831723185 -2.0280902589164453 5.4499915921195639 226 255 188 326.069519 143.327271 7
-1.3858562237449359 -0.26532464714635162 2.2915735556990815 245 255 240 150.493622 243.656357 7
-1.2520912923577838 -0.99389853624246549 2.2798951263245497 255 203 213 171.992722 118.244995 7
