ply
format ascii 1.0
comment Written with hapPLY (https://github.com/nmwsharp/happly)
element vertex 138
property double x
property double y
property double z
property uchar red
property uchar green
property uchar blue
property float ix
property float iy
property uchar octave
end_header
-0.23719332386056324 -0.22861425073452335 0.33685614148664378 255 90 113 115 28 0
0.8186689047128024 0.19232966027495213 2.3206591206909808 182 255 148 518.400024 319.200012 1
1.034399290513931 -0.082241383203699503 1.6182300268854313 189 255 138 630 271.200012 1
1.1415604940416157 0.51983479469721716 1.418666855150521 185 198 255 693.600037 428.400024 1
-0.14763010629226736 0.50823377331351172 1.1834199985824645 110 115 255 337.200012 451.200012 1
-0.45930633031760459 -1.9708235678782731 3.3046459336000726 169 179 174 328.800018 61.2000008 1
0.55820579176690632 -0.52136456228561656 2.4453623093958452 244 255 238 474.000031 205.200012 1
1.2906699981328007 -0.35440053676384808 1.7047311932420453 255 113 150 675.360046 207.360016 2
-0.25392364601798523 -0.24487087123483764 0.3634614272643204 116 146 255 113.760002 27.3600006 2
1.0393955068789666 0.37796335124654745 1.6013387707072999 134 148 174 632.160034 378.720001 2
0.35326427586836195 0.16480692530091795 3.9792716083262905 167 186 255 417.600006 303.840027 2
-0.17195175414330421 0.43678251446742278 0.67700726718816995 153 152 255 285.120026 538.559998 2
0.5814375473358675 -0.030965057119728856 2.7574300690176399 249 250 255 465.120026 283.680023 2
0.43078782602519405 -0.059550530493549414 2.4332120950381748 185 255 100 450.720032 276.480011 2
-0.14806293660441172 0.50572233295713021 1.1791943566345058 109 131 131 336.960022 450.720032 2
0.64074260443870834 0.53256918835364497 2.1988123633165442 255 139 153 495.360016 381.600006 2
-0.14005720206062922 0.59483549241331823 2.7200387448753425 183 255 143 362.880005 371.52002 2
0.83237843799178202 0.39165953571135903 2.4875570486103609 158 255 126 514.080017 348.480011 2
-0.19693987557713166 -0.24178322310117017 0.35757476117976905 15 34 48 172.800003 27.3600006 2
0.79970397682859784 -0.55903621161701911 2.4129421658481425 231 236 242 508.320007 200.160004 2
0.97597230365313592 0.33931731679877009 1.6574289291766622 108 128 255 609.119995 364.320007 2
0.5271702588850653 0.035081891297392309 2.7093285260161633 255 201 211 459.360016 293.76001 2
0.26103492712865117 0.72710234624341896 2.6588639049071041 255 124 144 423.360016 394.560028 2
-0.070787267992656888 0.65930313602554458 1.48687174101791 180 255 151 362.880035 459.648041 3
1.0719497396142816 0.3846405921602245 1.6669913300733477 134 148 174 632.448059 378.432037 3
0.99971961091324957 0.34675127027077601 1.7102076494595382 115 135 255 609.98407 362.880035 3
1.078430067559764 -0.44974911116076211 1.6942635512798425 235 237 242 628.992065 186.624023 3
0.53787481686317973 -0.26715411247150195 3.0235435065046756 255 127 168 451.008057 254.016022 3
0.86926841266983645 0.67136123420731897 1.0930342150578412 255 14 18 691.200073 525.312073 3
0.23358088480955708 0.63940493023625189 1.5220580356499633 39 255 13 442.368042 449.280029 3
0.38139412766338165 0.61341042834712267 1.7016953638272927 179 255 157 470.016052 425.088043 3
1.1002889459724208 0.61439651161860653 1.3790135409625401 28 38 255 689.472046 457.920044 3
-0.22177358607591735 -0.29065687059294198 1.6333063540709398 172 255 168 330.048035 219.456024 3
-0.22990911205239595 -0.10509931742332124 0.34247665965220619 157 255 105 126.144012 169.344009 3
-0.24212747451290895 -0.014545888967663401 0.35018843105028319 255 115 133 115.776009 273.024017 3
0.8731565615106579 -0.59618588509123294 2.6176514001803026 236 242 255 513.216064 200.448013 3
0.15480788922088928 0.55248425717696703 1.5055395397845759 255 122 132 423.360046 428.544037 3
0.1735339989648903 0.50931503446090787 1.8277571242178237 255 125 145 423.360046 393.984039 3
0.85482912236768493 0.70643515132399459 2.689002961864233 140 154 172 508.032043 390.528046 3
-0.22827386306216191 -0.10418189329902894 0.33924439623564639 158 255 107 126.489616 170.035217 4
0.98053254745427199 0.37656982721419308 1.9228471131943339 194 255 170 578.534485 362.880066 4
1.1857561535835586 -0.44429603247859628 1.8533940768800985 242 255 234 630.374512 196.992035 4
0.26658873348138212 0.65430883811593121 1.3125382468770743 218 217 215 464.48645 481.075256 4
1.103938738790561 -0.52025465300304952 1.6823184315647719 209 223 235 632.448059 165.888031 4
0.37727439750910641 0.61066926643986774 1.6978931076570403 153 163 178 468.633667 425.088074 4
0.58347714884973789 -0.43587771070145176 2.831477232651693 244 245 246 464.48645 228.096039 4
0.23420550680455765 0.63724369839659367 1.511489970481076 22 35 255 441.676849 452.044861 4
-0.49346353196198045 -1.3454655561978948 2.8142050020768936 255 172 182 319.334442 103.680016 4
0.17422878641861295 0.63078540934367322 1.7076740674658577 122 144 255 425.088074 429.23526 4
-0.1121768853988796 0.45963060700283859 2.1289013100394865 148 171 188 364.953644 371.174438 4
-0.13750780185789591 0.49896839657013015 2.0955600849018481 175 255 89 358.732849 375.321655 4
-0.2265552830370563 -0.2162978829190122 0.35778096247907376 114 139 255 141.004822 55.9872093 4
0.46671727573582977 -0.39093820927588918 2.1247712849362923 238 241 244 464.48645 219.801636 4
1.2188192285500701 -0.83378587828857853 3.6628299177880477 242 255 230 514.252869 199.065628 4
-0.18153695238033851 -0.054583584066892676 0.35814859754703576 67 90 104 188.697632 228.096039 4
-0.75745512578845409 -1.7856995373406903 2.7781755347822035 255 183 190 279.936035 41.4720078 4
-0.42049699615676639 -1.3964442071216838 2.7249202045146026 182 175 255 325.555237 89.1648102 4
-0.42606181036503488 -1.7953703368486724 2.9923145087297742 177 171 255 329.702454 60.134407 4
0.63629207868308635 0.64454869080860433 1.1816359506762319 129 131 126 588.902466 497.664062 4
0.80731008432180906 0.60936272255671586 2.217817785682211 131 144 163 524.62085 396.057648 4
-0.093015141012636304 0.67159166809574811 1.5127871713213938 185 255 141 358.732849 458.265656 4
18.976557796526386 -31.081809462449584 58.445310806660387 222 255 180 510.105682 85.0176086 4
-0.23677212235061784 -0.016177916341663434 0.33798999374868943 255 115 132 119.439377 271.226929 5
1.0923332032108002 0.61784689834203321 1.3788248474694385 28 38 255 689.264709 457.850952 5
0.78118103264067962 0.58416312304822249 2.1114799192582643 143 161 255 525.035583 393.154602 5
1.1433812649062252 0.59161821050731256 1.457518354166619 136 164 255 689.264709 440.432709 5
0.18146221951371944 0.62850322189574137 1.8416446794581471 122 143 255 425.502777 423.014465 5
-0.47100172560681042 -1.3371997485938436 2.8218306922510346 180 255 172 318.505005 102.021133 5
0.16893629861069392 0.073046971830802665 4.9692751589509765 188 255 144 398.131256 293.621796 5
0.33781336837402121 0.624315606119063 1.6096021345574592 146 255 113 462.827576 435.456055 5
1.120750512110813 -0.40597835932003645 1.7219616608122852 234 237 242 632.033386 196.577301 5
0.98133014787386308 -0.37130596418890638 1.6935786929890879 230 236 243 604.661865 209.018906 5
-0.33212652445327873 0.62992708033290579 1.4285785988124005 156 156 255 293.621796 457.850952 5
0.86137748161043559 -0.58822841241164847 2.5453538465515688 255 230 236 515.082336 199.065628 5
-0.21984925248640463 -0.17027868715223171 0.34397387871881513 139 164 255 141.834259 99.532814 5
-0.69499894209448909 -1.7185681589285569 2.8773105137769281 160 170 169 288.645172 54.7430496 5
1.0023292867341631 -0.22100876799500779 1.5496724398497879 188 255 133 634.521667 231.413788 5
-0.43544404095860356 -1.8062731582734848 3.0332898100359218 167 177 171 328.458282 59.7196884 5
0.67546928468429512 0.66378298670501146 1.2144290083631963 137 140 134 592.220215 497.664062 5
0.16651599519383375 0.48272746209896872 1.7255852329843213 164 185 255 425.502777 395.642944 5
0.57756579463653202 0.63075575606333567 3.0327291416854738 221 255 218 462.827576 368.271423 5
0.94084388211065673 -0.46415506746014668 1.999510294726182 241 255 224 562.360413 196.577301 5
-0.10595815153601418 0.68187334517448495 1.5523421088768456 180 255 137 358.318115 457.850952 5
0.71995536458496567 0.59187191905074388 2.1957594901740363 164 255 143 510.105682 390.66629 5
0.3129161517552943 0.64803602042229824 1.1309586721388234 226 255 229 486.715485 507.617371 6
0.80134260931069368 0.61113823474421713 2.2351488087863824 166 255 134 522.547302 394.149963 6
0.20515650206764091 0.67861657884582516 2.0250569091860928 92 98 122 424.009796 421.023834 6
0.58180536408334493 0.63940716889563554 3.0954189567586861 255 180 193 459.841614 367.276093 6
0.36791623597257761 0.60285075564100632 1.6816174702360938 150 164 255 465.813599 424.009796 6
-0.23357080307992906 0.34119596987892786 2.8724627980300328 149 144 255 349.360199 337.41626 6
1.0112641964113063 0.36389196989274197 1.5569492037309969 141 161 255 633.028748 376.23407 6
1.1384167485906727 0.29828383702185546 1.8356894352215765 112 143 160 624.070801 352.346191 6
0.67996720865864502 0.5806024276898899 2.6378144015940945 224 224 221 480.7435 373.248077 6
0.23745818592380874 0.67112442061014599 1.6814586439524355 44 255 26 438.939728 447.897675 6
0.64647621388124654 0.64450499749304258 1.1759980299347577 255 129 132 591.224915 498.659424 6
-0.4776692743648927 -0.82677093354512299 2.7114063975976919 173 183 181 316.514374 164.229156 6
0.46335157679807581 0.65783197967794049 1.6828873643215942 130 150 255 489.701477 438.939728 6
-0.19646319405521639 -0.013150698644711523 0.31844238468163377 83 106 255 149.299225 271.724609 6
0.79388739411654852 -0.55764647695662473 2.4260171250331224 255 231 236 507.617371 200.060959 6
-0.52165263292090547 -1.3681044218706357 2.847269195083153 255 173 183 319.500336 101.523476 6
0.96907467270820125 0.57952641247470715 1.8247199324030294 137 134 255 585.252991 409.079895 6
1.1321469319041753 0.62383156525984085 1.3419657944005277 255 7 13 707.678345 468.799591 6
-0.21919733004091224 -0.2114877309163834 0.34543598022788791 98 119 144 140.341278 56.7337074 6
1.2116964110255841 -0.41531795763541302 1.7563608352976798 241 255 229 650.944641 197.074982 6
-0.056687370311295338 0.086643643350511557 1.7452858472881596 143 255 13 370.262085 307.556396 6
1.1142949416650954 0.64099322036753659 1.4233450146905682 30 255 9 686.776428 459.841614 6
1.1659958979580429 0.54779245791213138 1.4486723090261924 255 133 150 695.734375 435.953735 6
27.621364413111682 -28.648977844981658 71.321291683152552 255 205 217 531.505249 134.369308 6
-0.24322135331357142 -0.018720733176721516 0.35237864585283241 115 133 162 116.4534 271.724609 6
0.27517235830615516 0.45460146714024774 2.2154041238425357 113 147 255 433.564972 365.484528 7
-0.26815524037806693 0.71580455059948356 3.4054687576682845 175 255 95 354.734985 372.650879 7
1.0247608371528711 0.58116759128744211 1.6256920202297716 255 21 31 619.890442 422.81543 7
0.86475828813038236 0.4928704725552111 3.1670606303166213 184 255 172 490.895874 347.568604 7
0.1022124182066233 0.75167009599651768 1.6591955693878973 140 156 179 412.065887 465.813599 7
1.1207383111615952 -0.39153243711183383 1.8332124429908632 255 229 236 619.890442 207.824539 7
0.34404064334110851 0.60705720840971211 1.5492345633548661 154 255 119 462.230438 437.148163 7
1.0597697941723501 0.26285065601833291 1.7042967188301654 255 111 141 623.473572 351.151794 7
0.3724983326696405 0.63814444122813341 1.8188794934235553 146 255 125 462.230438 422.81543 7
-0.30977109151220361 0.58650095804349656 1.3132804274914225 155 255 134 290.237701 458.647247 7
0.16187467706686909 0.082991841234937747 4.8898733116533197 165 184 255 397.733154 293.820892 7
-0.55797806687097484 -0.9891568781310347 3.330621784965949 255 170 181 315.319977 171.992722 7
0.56577676785480779 -0.49885366195316283 3.2347386045260196 255 123 167 451.480896 229.323624 7
-0.21758914059492396 -0.016589334626268215 0.36072801285252609 78 255 64 150.493622 272.321808 7
0.57261478056854376 0.81886384409450086 2.1130119559298493 255 130 145 487.312714 440.731354 7
0.47290821073930078 0.59153670207735976 1.6305300270192298 155 255 124 494.479065 426.398621 7
16.460055552773351 -27.135363610928664 48.481795268789043 255 163 190 515.978149 75.2468109 7
-0.24124667425723878 -0.13818259244870112 0.46091914339321471 81 255 23 186.325439 168.409531 7
-0.24807068232194363 -0.021045739832949661 0.36802782010534996 170 255 127 118.244995 268.738617 7
0.79443771103243455 -0.56399792474117194 2.4276602157661298 230 236 242 508.811798 204.241348 7
0.61021971181678447 -0.5641775879358637 2.6937678355452688 241 245 255 469.39679 207.824539 7
0.77966634758466391 -0.5324846461262247 2.282839597275041 231 236 242 512.394958 200.658173 7
-0.054827330243533812 0.092433686461084907 1.7089119093594345 3 106 132 372.650879 308.153625 7
1.0961621418820893 0.56484221141021163 1.3831830375126613 113 131 160 684.387695 440.731354 7
0.39674970404311205 0.64409107387308795 2.1877546956908409 255 137 161 455.064056 401.316345 7
0.18868010846992678 0.56049163832138671 1.9507017043829498 164 255 110 422.81543 397.733154 7
1.022988528099122 -0.50920811380359043 2.2013930880528658 255 222 232 555.393127 197.074982 7
-0.23254200082889387 -0.1079480528565514 0.35924426775838247 113 132 161 128.994537 171.992722 7
-0.48982874526614584 -1.3481279027921416 2.7794176266591917 255 172 183 315.319977 103.91227 7
