ply
format ascii 1.0
comment Written with hapPLY (https://github.com/nmwsharp/happly)
element vertex 65
property double x
property double y
property double z
property uchar red
property uchar green
property uchar blue
property float ix
property float iy
property uchar octave
end_header
-1.3876385087063601 0.71808003053609304 1.619659120708242 255 171 170 55.2000008 457.200012 1
-2.0600437718325484 0.70591559170982054 2.7580737980973549 255 216 215 99.6000061 387.600006 1
-1.397761707879464 0.1186409418519333 2.3870452496175769 250 255 243 158.400009 307.200012 1
-0.21699310500007307 0.38399467025765399 0.61141655901377945 173 255 130 250.560013 528.480042 2
-1.4261278758030609 0.22508325003567198 2.2839787526360631 247 251 255 145.440002 326.880005 2
-0.63452859640253534 0.38784449118608294 1.1986147305965869 149 170 255 181.440018 409.536041 3
-0.20867566208272281 0.16996208822445474 0.57682954583750323 255 87 101 247.104019 399.16803 3
0.74165573744750724 0.44054436739791658 1.001758957701937 229 228 255 665.28009 456.192047 3
-1.7366284552492202 0.73163654119236776 2.364783655243512 214 210 255 101.952011 404.352051 3
-0.19127364685676573 -0.15182948941234126 0.58367047777406533 148 167 190 260.92804 190.080017 3
-0.21286517255706361 0.26108843518126207 0.59877640288350786 183 155 255 245.376022 456.192047 3
-0.96990780863463577 0.046772561044376604 1.7776939068471513 255 244 246 171.072021 297.216034 3
0.69127325977875009 0.62681259006354317 1.0334591908619775 226 226 255 641.088074 520.128052 3
0.64541736541761474 0.098906562650322938 1.2833442900118799 252 255 245 578.880066 314.496033 3
0.60693096704508487 0.087634427189864805 1.4597037501019239 185 255 150 546.048035 311.040039 3
-0.30569615569147501 0.64051064262078361 1.6929170430989746 255 32 108 311.040039 433.382446 4
0.22141267554309074 0.1313680609437769 3.4909385290081207 128 170 192 408.499268 302.745636 4
-1.4831854099711137 0.68868391236696636 1.6635037986562455 255 179 178 43.5456047 445.824066 4
-2.1908662084457555 0.76114265991126717 2.9641943730139406 255 214 213 95.3856125 387.763245 4
-0.22398746682322246 -0.3679624640279594 0.6361822009950151 181 255 56 246.758438 64.2816086 4
0.86247775455410647 -0.088528816852078696 1.0971817835220916 112 255 83 686.361694 259.200043 4
0.61252822425122044 -0.47856452095159263 1.3459354861371722 227 236 255 557.798462 151.372818 4
-0.21585492935818884 0.10414939850032198 0.66306493692430912 255 141 161 255.052841 350.438446 4
-1.2921372481740381 0.21822290130758404 2.3087126291308717 251 255 243 170.035217 325.555237 4
-1.4826606506053501 0.118907920717752 2.5503832378000446 246 250 255 157.593628 306.892853 4
0.62665388749731754 0.57796602901973559 1.231326386112487 226 227 226 580.608093 470.707275 4
0.72235043368649743 0.6483141036630613 1.0872931213856729 226 226 226 640.742493 520.473694 4
0.6904844920451163 0.66416087722651851 1.2883144965827382 224 255 224 590.976074 487.296082 4
0.35807546966116233 0.24219236066023819 2.5337983180357284 252 255 245 442.921021 323.481659 5
0.18273409402664198 0.16619373760293937 3.4073700957028343 125 172 194 408.084534 303.575073 5
0.5533054592552975 -0.38246161344385388 1.6606439154537238 232 237 243 512.593994 201.553955 5
-2.0278831800277106 0.73314630844853412 2.4883934225165483 148 158 255 69.6729736 403.10791 5
-2.02831965193917 0.69057492282108124 2.669718054724024 197 255 199 94.5561752 385.689667 5
-0.22364592444786835 -0.32730086939454628 0.62870203963044879 180 255 74 246.343719 87.0912094 5
0.60326195833753626 -0.36878180306579567 1.3893124170064892 229 234 241 552.407104 186.624023 5
-1.3633017015587141 0.65970151970447588 1.5391805010128836 255 227 226 47.2780876 450.385986 5
-1.8297701738343575 0.25891239150034728 3.0048834115144931 251 255 242 146.810898 323.481659 5
-1.3299999410526024 0.11249387622050472 2.2468687915091907 243 246 250 156.764175 308.551727 5
-1.1991459300524565 0.73884108916940727 1.5362297607943551 108 96 67 80.621582 477.757538 6
-0.3169990784116905 0.63714160566195788 1.7303433384076268 138 255 31 310.542389 429.981781 6
-1.4145333801560205 0.69788742190851571 1.8676246242767389 83 85 87 92.5655212 429.981781 6
-1.4411703246072514 0.11160878336903729 2.4490848188665453 243 246 250 152.285217 307.556396 6
0.59753556865211777 -0.38385150188681771 1.4086918525891692 236 241 255 549.421143 185.131042 6
0.59102614082881755 -0.39900545386606667 1.4153782461500661 241 255 232 546.435181 182.145065 6
-0.2273576910912114 -0.10237193921554 0.65471701466411414 81 173 194 244.850739 226.93483 6
-0.21885436269461289 0.072670200493952702 0.60223353987549721 64 160 181 244.850739 334.430267 6
0.83354539815317041 -0.46799916497016869 1.0911625149994011 230 255 198 674.83252 122.425369 6
0.67786606178884234 0.6197484302883931 1.0822636546920164 226 227 226 624.070801 507.617371 6
0.70804365792691026 0.63079440151890387 1.0556321690812362 255 226 227 639.000671 516.575317 6
-0.1754484245936796 0.86891550943732154 2.1561602808786011 255 100 157 355.332153 441.92572 6
0.33075743979461558 0.22290176214358995 2.1283162815567858 241 241 246 440.731354 333.235901 7
0.53232061694716504 -0.372860223353771 1.6934445430992922 232 237 243 512.394958 200.658173 7
-0.43773391925833671 0.77423140258552636 4.4607406802206597 255 92 127 343.985443 354.734985 7
0.1660592154925542 0.15395174789404839 3.6869892985460133 116 166 191 404.899536 304.570435 7
-1.4718603894121265 0.71940508618183885 1.9503712089623013 83 85 255 89.5795441 429.981781 7
-1.37985667440975 0.22752226726865316 2.4892837697644286 243 247 251 168.409531 326.069519 7
0.58982005059252884 -0.33011560223535352 1.3688163140881793 226 234 242 548.226807 197.074982 7
-1.1899314077147505 0.73560989289175582 1.5152546518923611 84 255 83 78.8299942 476.563141 7
0.83508982937517096 -0.47034468253433082 1.09761402371036 230 255 198 670.054993 125.411354 7
0.60166115524084196 -0.12372469597455954 1.4690395427921699 246 247 249 544.643616 254.405899 7
-1.5658620200787041 0.3460690128038702 2.4008000500675193 238 238 244 132.577713 336.819061 7
-0.22842281820332033 -0.036809400450733998 0.64563637428932097 255 112 176 243.656357 268.738617 7
-1.3238560428741626 0.11285977130387259 2.2232896431758613 250 255 243 154.076813 308.153625 7
-0.14836829373892169 0.76632720295948276 1.8112649949072575 174 255 85 354.734985 444.314514 7
0.57856687055848965 0.33010042313243987 2.1452978183925095 246 255 241 490.895874 343.985443 7
