ply
format ascii 1.0
comment Written with hapPLY (https://github.com/nmwsharp/happly)
element vertex 165
property double x
property double y
property double z
property uchar red
property uchar green
property uchar blue
property float ix
property float iy
property uchar octave
end_header
0.75243974870207442 -0.083383084068493596 1.6247645253263112 250 255 249 562 268 0
-2.0475863192890849 0.68711043153130369 3.1215301144400218 194 198 200 132 373 0
0.93506448834663725 -0.4658998987256554 1.3454849358186456 215 225 236 652 154 0
1.0035740161964368 -0.42603918891147352 1.1447133987483049 219 233 255 721 145 0
-0.58523596208550099 0.6992294374450676 1.4983144573721958 255 186 190 235 468 0
0.76601129203897322 0.43159037511862042 1.4210503772560523 149 169 255 589.200012 405.600006 1
-1.0102419337533974 0.49254331050307421 2.3006917535928997 161 170 255 217.200012 369.600006 1
-2.2256639804760221 -0.53830868976544299 2.3679166179640339 148 149 157 24 199.200012 1
-0.21096643086600908 0.42566622814768018 1.3947606232456975 190 104 255 325.200012 405.600006 1
-1.8353175674415056 0.76760568192871592 2.8971766767669562 131 164 255 141.600006 387.600006 1
-2.1658732181548359 0.73977637954031161 3.3090514326462435 207 255 202 130.800003 373.200012 1
-0.32497382752268766 -0.12619790708964485 1.0234154241328302 242 247 255 261.600006 240.000015 1
-1.8420960173076852 -0.18118890480463667 2.0121941026682517 137 149 255 33.6000023 255.600006 1
0.99989679923160335 -0.4234730124092041 1.1416281519399831 219 233 255 721.200012 145.200012 1
-0.5417100188578865 0.64919067227295579 1.3723660537348499 198 255 187 234.000015 468.000031 1
-1.5505058195733126 0.097078073172694179 3.0665034603492689 250 255 244 190.800003 300 1
-0.18896196877930249 -0.027235216037025389 0.90528645578601541 152 176 255 305.279999 276.480011 2
-0.34423245959868298 0.60850933639969462 1.0667265898957279 255 128 140 259.200012 508.320007 2
0.72746936936869289 -0.21613320196997454 1.632926934763625 248 255 243 554.400024 236.160004 2
-0.4404165488944809 -1.2781811207190605 1.882830642292431 255 85 162 295.200012 27.3600006 2
0.58945808958826529 0.06549628696613119 1.7640132023691013 246 248 251 512.640015 300.960022 2
-0.33454321113585062 -0.1271460081363065 1.0441560810668289 238 242 247 260.640015 240.480011 2
-1.148926586933412 0.52922220180585211 2.5083219874375171 121 124 127 208.800003 368.640015 2
0.61220211851844164 -0.39975428791980439 1.7933598113131675 231 237 243 516.960022 204.480011 2
-1.0518333440891192 0.72346329555709921 1.7349349237650031 255 10 18 151.200012 449.280029 2
0.76661502040087703 0.61289487236115192 1.2643606147463036 151 255 119 614.880005 472.320007 2
-1.4293494177665629 0.6706215027792275 1.6621717132865328 46 255 100 54.7200012 444.960022 2
-1.5855558503599378 0.65939303732763332 1.867850356868928 207 214 255 57.6000023 423.360016 2
-1.5266397839588302 0.69122129823507317 2.1085114692733375 144 146 255 105.120003 414.720032 2
-1.7895096150272281 0.72106288817466435 2.2696792607216709 255 202 193 79.2000046 410.400024 2
0.60452160259298493 -0.13829893854154879 1.8098687838356371 249 255 246 514.080017 257.76001 2
-0.1956151617703159 -0.32914212566454781 1.0604810637299895 48 137 166 312.480011 171.360001 2
0.87952373597112787 -0.37861864851500793 1.5733580182062372 235 242 255 597.600037 198.720001 2
0.99776989035613306 -0.42362572065160298 1.1441208785262722 204 219 233 720 145.440002 2
-0.59846365147857217 0.71012913577676573 1.518904784441065 190 198 255 233.280014 466.560028 2
-0.28854314075317555 0.082327404836007978 0.88604129794586051 162 176 194 260.640015 322.559998 2
-0.29063924159629906 0.5927298269750948 1.9670308616737122 164 88 255 325.440002 403.200012 2
0.58978263503125539 0.68529016666340525 1.2069923271758496 255 145 155 571.679993 505.440033 2
0.35723505295079461 0.68538602442383145 1.0477844321722927 255 129 143 515.52002 538.559998 2
-0.22357869288955845 0.31494454955064299 0.9546176381774103 119 133 255 297.216034 416.448029 3
0.58111263079883968 0.061750368960571955 1.7239834248941905 255 246 248 511.488037 300.672028 3
0.71537175902731542 0.12625514580990904 1.5303314706334126 255 139 158 563.328064 319.680023 3
0.6543072179815852 0.043101558516941557 1.6913359089021744 247 248 251 532.22406 295.488037 3
-0.22807781573442876 0.25690266604276035 1.0424545954567979 57 255 40 298.944031 381.888031 3
-0.17653188895187366 0.7447210387557206 2.8920146061948593 168 191 255 357.696045 387.072021 3
-0.68579349391837141 0.51415119910509643 1.6509686679630846 223 223 221 224.640015 407.808044 3
0.79377472865754051 0.54849656497315102 1.2134341349764384 127 142 156 632.448059 459.648041 3
-1.4673064426032099 0.68674663932991409 1.7103862023753074 48 49 255 53.5680046 444.096039 3
0.54084228055585992 -0.020537414351011252 1.9946814893182774 255 249 250 487.296051 283.392029 3
0.53013837415072307 -0.12251963148877359 1.5628746797715873 247 249 255 513.216064 257.472015 3
-0.30984303701268745 -0.18731673221570833 0.94441238851770581 255 232 238 259.200012 214.272018 3
-0.20725332083217962 -0.21771162289213897 0.92622982506931528 175 198 255 297.216034 196.99202 3
-0.21192735251694739 -0.14109089512500345 0.9678848827293578 176 197 255 297.216034 231.552017 3
-1.9185916841430513 -0.51855240191586538 2.1739761083299527 98 95 106 44.9280052 198.720016 3
0.73767873747893198 -0.21715077546962791 1.6566207622991778 248 255 243 554.688049 236.736023 3
-1.5991367326738479 0.11020991166611935 3.1784624754533413 250 255 244 190.080017 298.944031 3
0.72463774600923481 0.62361889853523245 1.453878770235943 255 101 115 575.424072 452.736053 3
0.68906103638693916 0.60799779921497155 1.4653630142241436 160 175 255 565.05603 445.824036 3
0.36272228260177708 0.69688409109598703 1.0672031555770483 147 167 255 513.216064 540.864075 3
0.88472338758931834 0.088783517756766683 1.4957828146771481 248 252 255 609.98407 311.040039 3
0.17453244019583747 0.13842468407389685 3.9540239606219103 35 109 140 404.352051 300.672028 4
-1.4473415599598392 0.68887213714712914 2.2977278841944928 255 70 77 143.078415 404.352051 4
-1.7580152332818826 0.72924264683603868 2.7881789854678107 145 255 120 138.931213 387.763245 4
-0.64591060873971218 0.49316648310725214 1.5493944764766354 221 255 222 226.02243 408.499268 4
0.78444977131577676 0.62899349710040531 1.303514634263391 132 147 255 613.785706 472.780853 4
-1.703946753594157 0.68952573777724624 2.1706125806430876 184 255 196 78.796814 410.572845 4
-1.9222291873240978 0.67540086969283053 2.7076855219347573 255 142 157 111.974419 385.689667 4
-0.32636967023257446 -0.19757591194651336 1.0101815598567923 255 232 238 259.200043 213.580826 4
-1.9299502472235757 -0.5173275238162296 2.1969324454021546 99 109 255 45.6192055 199.065628 4
-0.22259617847215285 -0.39066077891904538 1.0087969001584023 90 168 194 296.524841 138.931213 4
0.61552004860754272 -0.4188582427248122 1.8541584582554389 243 255 232 514.252869 201.139221 4
0.87881069127478395 -0.43767522363005251 1.2525298023123623 255 215 225 651.110474 155.52002 4
-1.0877595601393071 0.73969617433872137 1.7876094230449455 19 32 255 149.299225 447.897675 4
-0.26549305030206671 0.60712400881447615 1.9819066885169052 255 230 218 331.776062 402.278442 4
-1.8644181627226337 0.072101613657809233 2.2496830987264413 243 255 235 70.5024109 300.672028 4
-1.3778511144332684 0.21631881288852273 2.8838748760010189 255 243 247 199.065628 317.260834 4
0.67735891687338778 0.59412207945132534 1.4417203768424498 147 159 174 564.019287 445.824066 4
0.7406020137515732 0.67687910176099364 1.3205847007480953 255 66 74 599.270508 485.222473 4
0.94101286388683081 0.64327929301837439 1.0697902763751417 255 219 220 723.686523 516.326477 4
0.71533525772522855 0.47885954992986118 1.5849703080538839 255 121 139 555.724854 402.278442 4
0.99471782510978135 -0.59498919880590184 1.772213984189964 255 231 235 603.417664 157.593628 4
0.88789194428734897 0.53579198022744423 1.1059071366772342 173 255 119 694.241394 470.292542 5
-0.14881454434464469 0.6061243293214722 2.3101373490536634 191 255 149 358.318115 383.201324 5
0.74225408649436853 0.56555922751669008 1.0256812006652289 141 171 255 661.893188 497.664062 5
-1.587685703427363 0.76284534159229644 2.5464815585327907 81 85 255 141.834259 403.10791 5
-2.0220319637448192 0.67428248931861934 3.0431842508193148 208 255 149 126.904335 373.248047 5
-1.3793179511718088 0.20070155356572933 2.8578690219962652 255 243 247 199.065628 316.016693 5
-1.6941737613029124 0.6805051002424487 2.1608248104376075 255 197 188 79.6262512 408.084534 5
-0.23339201540365107 -0.3033314618398808 1.1063579566160522 194 255 85 298.59845 181.647385 5
0.60182855569348992 -0.14400719992212435 1.8237850333613705 249 255 246 510.105682 256.296997 5
1.0174191252717297 -0.43313780103291954 1.1790986266348593 255 206 219 719.124573 144.322586 5
-0.24697643046461426 0.68818655184246846 1.6966247260345835 255 120 139 323.481659 445.409332 5
-1.1380864747793851 0.68404494982234276 1.8080052776766982 65 255 53 146.810898 432.967743 5
-0.39577093520184148 0.10282801621566645 1.264744599028246 187 255 156 258.785309 320.993317 5
-0.70170576892835701 0.26734434323542711 1.7312781013773169 195 182 179 228.925476 345.876526 5
-0.37735251284897098 0.74834791085359353 2.6920553606553259 172 159 255 325.969971 398.131256 5
0.83378948438399858 0.45415105243564219 1.2902293797562212 167 255 132 634.521667 423.014465 5
0.67767460297301652 0.46426520154869472 1.3755387482811994 139 160 179 572.31366 420.526154 5
0.79544632034984986 0.6789494656727888 1.1778554702540882 157 170 255 641.986633 510.105682 5
0.7368158916286669 0.66592582196658301 1.3007886963219235 81 255 44 602.173523 485.222473 5
0.79865780212685999 0.64404491501351591 1.1314897146917096 255 125 141 659.404907 507.61734 5
0.36470877032207549 0.22778680169217552 2.9959325634089815 120 178 186 432.967743 316.016693 5
0.27361190514819289 0.19168875465543794 3.4170749684115505 255 154 187 415.5495 308.551727 5
0.54202958967843728 0.61187955359369661 1.7460706838147289 147 163 180 504.631378 424.009796 6
0.81421001174333374 0.54371485059911873 1.2890009062814789 132 148 166 624.070801 450.883667 6
-1.676943827951296 0.55687621624918771 2.4664413120795308 186 205 255 125.411354 373.248077 6
-1.9507174007685193 0.52664419256828654 2.6020155242257665 79 120 255 89.5795364 364.290131 6
-2.0214828884323639 0.39756811971117911 2.593039837998429 255 213 136 83.6075668 352.346191 6
16.454964873353578 -26.668651054708068 47.630170669772291 255 165 193 519.56134 74.6496124 6
0.86995329130098642 -0.43167615691533145 1.2323414036467968 236 255 215 650.944641 155.271194 6
0.37752096134250124 0.6360211504200719 1.10403762507707 160 255 133 510.603363 507.617371 6
0.8363813401408795 -0.49008744169552887 1.4602085815074934 255 231 235 603.168884 158.257187 6
-0.22202585671161268 -0.38844222782820936 0.98042461995627228 187 255 67 298.59845 137.355286 6
0.56919088235669113 0.68324387447014323 1.2165164664362687 255 139 150 567.337097 504.631378 6
0.74363139948421164 0.65960713541554705 1.2892517436969682 255 57 66 603.168884 483.729492 6
-0.10176520481065232 0.54912460390279838 1.3426436544206943 129 148 171 352.346191 438.939728 6
-0.13969523691493224 0.7227918796056636 2.1077988054779668 255 137 157 355.332153 418.037842 6
-1.3403066697513717 0.29547026667524195 2.3663903125475727 255 238 238 167.215134 331.444275 6
0.5772580470305928 -0.4166754496923647 1.7239452699889561 237 243 255 513.589355 200.060959 6
0.23220273991325491 -0.16538764783496218 0.78207285232601009 236 240 244 492.687439 209.018921 6
0.64150110302010632 -0.5173642184957189 1.7759126185045853 255 227 234 519.56134 179.159073 6
0.12499268980548472 0.12507023709119869 3.4355751365268024 13 82 114 400.121918 301.584442 6
0.083958349698884049 0.23167826689522825 0.52865234448470844 170 255 131 450.883667 453.869659 6
-0.66296829395340806 0.49950500449800928 1.6007761578969353 223 222 255 229.920807 409.079895 6
0.69257634790762812 0.6325970494343266 1.6543432668646965 255 123 143 543.449219 435.953735 6
-0.19050517988059879 -0.15593626324608789 0.8210993553899133 255 113 175 295.612457 217.976868 6
-1.4710544063805338 0.66757260334111757 2.0092110059138832 191 179 255 101.523476 415.051849 6
-1.8371109543854698 0.083282325740506091 2.2279497051069788 227 228 231 68.6776428 298.59845 6
0.71966044937955109 0.60099796941362549 1.4495196612813332 126 143 255 573.309021 453.869659 6
18.849032713377088 -21.75562831478101 36.491199941838644 185 217 255 585.252991 65.691658 6
0.85854565705049435 -0.22894605881772623 1.2750133432574913 255 208 214 639.000671 223.948837 6
-0.20406349230455678 -0.51728033531206119 1.0100912760852321 39 153 180 304.570435 89.5795364 6
-2.2040738656676915 0.31403112711888553 2.7372420582578068 255 238 239 75.2468109 333.235901 7
0.70466339648872123 0.48510754769257286 1.6010346300520926 255 115 131 555.393127 404.899536 7
-1.7585263598834167 0.063945235404853834 2.1073183725616049 255 238 240 71.6636353 300.987244 7
0.79008320998981052 0.69602525162869644 1.3935639770510937 56 75 255 601.974487 483.729523 7
0.78164249655489826 0.62341242916756689 1.3205748415881642 115 128 143 612.72406 472.97998 7
0.76214435396452385 0.63648221193297039 1.3590005156018004 101 255 79 598.391357 469.39679 7
-1.9330922309575467 0.70327180188713301 2.5120218772262524 182 173 255 85.9963608 394.149963 7
0.094610881144086445 0.057391504315117969 1.1305126066603695 139 176 189 412.065887 308.153625 7
0.19040828181906932 0.14717421636415656 3.7539068444373189 95 127 255 401.316345 300.987244 7
0.8363813401408795 -0.49008744169552887 1.4602085815074934 235 240 255 601.974487 157.659988 7
-0.72004401451495603 0.71158502201677076 5.87706047757775 170 194 255 329.65271 336.819061 7
1.1420387747748879 -0.32349632447613719 1.7735910553528447 237 242 255 637.806335 222.157257 7
0.8911154387598117 -0.20852459512745203 1.4947666797843642 247 248 255 609.140869 240.073166 7
0.54043595882603412 0.70329398766055717 1.3173522094666801 95 108 124 544.643616 494.479065 7
0.8225509269090634 0.44393592717594438 1.1394703484069408 177 255 135 662.888611 437.148163 7
0.92966667622576882 0.49997380135456637 1.4587179454771197 169 255 134 634.223145 426.398621 7
0.62066958814274398 -0.37278580526905958 1.8930708334060196 235 239 245 512.394958 211.407715 7
0.54746540551827794 -0.39876688942727245 2.025340623993702 255 238 241 487.312714 211.407715 7
0.82459880361271098 0.66662525537290829 1.1789952204282539 255 129 146 655.722229 505.228607 7
0.82358778514923259 0.56607950665797102 1.2309069545676605 160 174 255 641.389526 465.813599 7
-0.15439221923062352 0.68065700200484036 1.7690063777169485 189 255 147 354.734985 437.148163 7
-0.20252281587233378 0.55434112749105013 1.3663301032796049 159 255 119 322.486359 444.314514 7
-0.27933564849547299 0.65126959014283159 2.0274976283857091 228 219 151 336.819061 404.899536 7
0.5666854990370036 0.65234804754646991 1.8522820922949021 153 174 255 505.228607 422.81543 7
-1.2325978929104493 0.084720214507157138 2.3680637291832749 250 255 244 186.325439 300.987244 7
-1.5746105166079354 0.76209145747986673 2.5324995447310323 255 70 77 143.327271 404.899536 7
0.25312183283689582 0.18264115537255138 2.1261144235770075 142 163 255 429.981781 329.65271 7
-0.31699716469511552 0.64958354167702437 2.3343721233043393 191 255 153 326.069519 394.149963 7
-0.98922031892181339 0.48361955892822561 2.2491552110947008 255 146 146 211.407715 365.484528 7
0.70585027859720362 0.61941692959949335 1.4530518532674046 134 153 255 573.309082 455.064056 7
-1.812177895409306 0.59964541065252919 2.638033137499848 159 175 255 121.828178 376.23407 7
-0.33421730437555786 -0.64577340572038411 1.216111955928727 255 183 202 279.488159 82.4131775 7
-0.25160123862243688 -0.32798847129904984 1.1515231029169843 168 191 255 297.404083 179.159088 7
