ply
format ascii 1.0
comment Written with hapPLY (https://github.com/nmwsharp/happly)
element vertex 79
property double x
property double y
property double z
property uchar red
property uchar green
property uchar blue
property float ix
property float iy
property uchar octave
end_header
0.72515042561771925 -0.51674111245386378 2.0930744028917863 234 241 255 517 193 0
1.1495686651880763 0.52726242768425402 1.2801246399920023 139 167 255 729.600037 446.400024 1
-0.25319116893865345 -0.32607225683289021 1.7619598857566841 255 231 238 331.200012 217.440002 2
0.26271882143146597 0.71988654565296661 2.4559540922190068 116 149 176 424.800018 400.320007 2
0.9876120109421711 0.48495017595261425 1.4673671528687144 255 159 173 643.680054 414.720032 2
-0.44254240456166505 -1.7683311781908857 3.0857805743175817 255 181 199 331.200012 67.6800003 2
0.54044050903958807 -0.47448008684671117 3.0743162471371095 143 181 192 452.736053 228.096024 3
1.0106997908580158 0.35368369182913778 1.5767441017655619 141 151 169 632.448059 373.248047 3
0.89911544843332292 0.55848511821748181 1.7726466909372327 255 20 32 575.424072 407.808044 3
-0.25218738176306488 -0.35333701368385739 1.9099433842787503 244 255 231 330.048035 216.000015 3
-0.38596037011727713 -1.6021467871653365 2.7817083403893941 220 255 180 330.048035 69.1200104 3
1.0662815205979199 0.38999907652888477 1.501162670798017 179 255 130 658.368042 390.528046 3
0.57410563026866424 0.62592760790128954 2.7965998569349342 231 255 232 466.560059 373.248047 4
1.0101704913162552 0.35593777066477827 1.5789513004186961 141 151 169 632.448059 373.248047 4
1.2132035387737305 -0.39969058777731914 1.5603138068169988 229 234 239 684.288086 190.771225 4
0.22833578859064452 0.63925879673693287 1.3590664921781421 34 53 255 449.971252 472.780853 4
-0.10521484473753828 0.46571574567884844 1.9721805006588902 121 139 154 364.953644 377.395264 4
-0.13806404536654293 0.5298880177220413 2.0700377575119111 211 255 186 358.732849 381.54245 4
-0.42082334081888906 -1.7842806954017498 2.8501441019049096 194 217 255 325.555237 43.5456047 4
0.54482938313334706 -0.45311318017749902 2.4471995080877385 239 242 245 468.633667 219.801636 4
0.80403409025211858 -0.54439236421442172 2.243257504784693 241 255 227 522.547302 194.918427 4
0.62051216830867784 -0.57054908994502829 2.5657657284869737 238 240 244 476.92807 205.286423 4
-0.066648011997595846 0.66108439098464389 1.3235034743745109 107 128 149 360.806458 481.075256 4
1.1025636336921436 0.62102664792599982 1.2330615255558772 130 158 255 725.760132 479.001678 4
0.64209582925439745 0.6527304999835275 1.0401477287537864 116 123 124 620.00647 528.768066 4
0.38496826760765956 0.61784932002405957 1.5475737054808842 161 168 183 476.92807 439.603271 4
0.98895379383275051 0.6126162614631111 1.9882417819010465 19 32 53 576.460876 406.425659 4
0.68655137039299619 0.57411913020330252 2.2642122215867655 159 175 255 501.811279 385.689667 4
19.313281036175216 -31.596330764580735 59.318039875684114 176 198 222 508.032074 82.9440155 4
0.48204554237256358 0.67818635020802553 1.5696409912077227 152 255 117 502.640717 455.36261 5
0.19441826564201214 0.094337024863433649 4.4255039015446442 149 168 187 400.619568 293.621796 5
-0.086453695307339151 0.68459706688824806 1.3818962522427727 98 117 139 360.806458 480.245819 5
0.38801613523477019 0.62851037172444857 1.5912274926603764 171 182 255 477.757507 437.944397 5
0.23130440603085001 0.58030436590550094 0.99170524037982233 68 72 255 477.757507 510.105682 5
0.23951192957752077 0.64707977575913322 1.3714301149562846 43 255 15 450.385986 467.80423 5
1.0188944373852871 0.56241490346345058 1.3155408497902199 136 155 255 681.799805 452.874298 5
0.78532328186030109 0.59227988562974443 1.9648373715926191 114 130 255 537.477173 403.10791 5
1.1087725871428282 -0.51151300633398211 1.5403943672239837 255 212 223 659.404907 156.764175 5
0.18821473353041762 0.63927660069852554 1.7083713715982842 180 255 145 426.995789 426.995789 6
0.27608240093283931 0.45401957554397621 2.0249051988297362 255 35 110 435.953735 370.262085 6
0.97431061527324692 0.58726426776742902 1.681102078703014 255 69 75 603.168884 421.023834 6
0.46268725597969662 0.65080620850490745 1.4967822819320258 131 152 255 501.645416 456.855652 6
0.47620836408541889 0.59652542547820453 1.4784345801086731 155 170 255 501.645416 438.939728 6
0.18168207270946723 0.61697898151258024 1.0392349764364575 255 218 218 447.897675 516.575317 6
-0.3279667860639166 0.64312716642839129 1.2978424854908175 168 255 161 286.65451 480.7435 6
0.79085175273767949 0.6063532184219298 2.0310422255002978 149 255 126 534.491211 406.093903 6
0.72962080433782828 0.60304023533134721 2.0717826051547812 255 125 137 519.56134 400.121918 6
0.81637356353634161 -0.25208598594168363 2.085711120809365 255 243 245 531.505249 244.850739 6
-0.17714162068397554 -0.045726883569885857 0.22056528418775878 146 255 98 74.6496124 209.018921 6
0.70491346745887218 0.62435159537894036 1.1136739662989132 46 255 23 630.042725 501.645416 6
1.0067955279107905 -0.21183241824256294 1.4070079862723492 116 152 180 656.916626 232.906799 6
0.57476596930395929 -0.476955391409291 2.6157999111623251 240 242 245 468.799591 214.990891 6
0.86368742219403405 -0.5762509809998706 2.3859446727278755 241 255 227 522.547302 194.088989 6
0.1735293320898037 0.080405662209638185 4.8745558660936688 170 189 255 397.135956 295.612457 6
-0.04930051928740431 0.09828744187145444 1.586053538520642 145 176 255 373.248077 316.514374 6
0.49900837976104784 0.62833600388705058 2.0114464459513588 157 181 255 477.757538 409.079895 6
0.95062709871135087 -0.45591047315739175 1.8674314828869871 222 232 240 576.295044 194.088989 6
0.24364578848343199 0.53211263435150891 0.95200445537174705 104 255 105 486.715485 498.659424 6
0.1728568257894012 0.49540877381402804 1.5977290278311678 162 255 99 426.995789 403.10791 6
-0.1014915493222377 0.69541017292458307 1.4227327089300692 136 255 94 358.318146 480.7435 6
0.68160547923646808 0.58497973314017848 2.4741417649226527 113 124 255 489.701477 379.220032 6
0.84354511823847722 0.48572123588197846 2.9183584365131328 118 131 144 492.687439 358.318146 6
16.621415688079978 -26.931491894333035 48.249826108590405 163 191 219 516.575317 74.6496124 6
1.0259337825098003 0.37387498522976359 1.4339996525522727 255 131 146 659.30542 386.983612 7
-0.30629058489602379 0.60432386388979054 1.1929509368468203 168 255 161 286.654541 480.146332 7
0.563430309812331 1.0015604043236093 2.9536426329637786 255 149 163 455.064056 422.81543 7
0.19623156963126154 0.57311490947641508 1.8293733189703278 161 255 99 426.398621 404.899536 7
1.0328279470362953 -0.21032680262363007 1.4528434542167101 255 114 152 655.722229 232.906799 7
0.61538506815912597 -0.55499073603143023 2.5574754627752743 237 239 244 476.563141 204.241348 7
0.79458675010322244 -0.54284253122649839 2.2537737025893829 255 229 235 519.56134 197.074982 7
1.0292859109898451 0.58885534035701204 1.4816049081995564 89 98 111 644.972717 440.731354 7
1.049822648184773 -0.33863041389569393 1.5238115958603977 123 159 190 644.972717 204.241348 7
1.2184983278233181 -0.40712458838561516 1.6065250379242126 226 234 255 673.638123 193.491806 7
0.36771001780591916 0.66090899476540876 1.5656207905192794 156 180 255 469.39679 451.480896 7
0.82776371241871449 0.40516138848355621 2.0706982163702703 147 162 255 533.894043 365.484528 7
0.72717012906484135 0.64105656464642946 1.1548035110523305 255 30 50 627.056763 501.645416 7
1.1259265609095981 -0.49080221183514117 1.589950057401361 211 224 236 652.139038 171.992722 7
0.82263411884592053 -0.26617128785351385 2.11217317170793 248 255 242 530.310852 243.656357 7
0.54039959080506383 -0.46103081955763925 2.9067561458732083 255 172 195 455.064056 225.740448 7
