ply
format ascii 1.0
comment Written with hapPLY (https://github.com/nmwsharp/happly)
element vertex 182
property double x
property double y
property double z
property uchar red
property uchar green
property uchar blue
property float ix
property float iy
property uchar octave
end_header
-0.30239026006809189 -0.26312466688026642 1.3580608887945189 227 255 207 298 214 0
-2.7907850460792698 -0.3068997615388937 4.097062524880319 231 233 236 124 259 0
-2.7808942430260664 -2.6504968641566689 4.0846943978545616 84 117 161 124 40 0
0.44641300127969585 0.44224600879526643 0.72692990314468764 255 90 93 619 523 0
0.69866829204248404 0.29381657146089918 1.8330951223353564 96 109 130 532 349 0
0.16049579807324504 0.19709517058926118 0.59025776158822818 196 195 255 489 418 0
0.76214330187517976 0.43155215214713666 0.93803994664657542 255 167 169 695 466 0
0.76387461529209988 0.1546791090450238 1.5660489818610004 255 30 39 571 328 0
0.23894203587523705 0.44534989897457644 0.66874825940775973 100 255 50 522 544 0
0.36600924744500923 0.22137810184301918 2.4581682492811763 255 30 63 439 322 0
-0.38889446761632962 -0.54821296854293633 1.4208895800707004 166 199 255 277 139 0
0.84257987467758066 -0.07305139675924141 0.95532126073806733 255 63 74 723 259 0
0.8374741459116315 -0.15616028707728274 0.95461298752925949 228 233 255 721 226 0
1.3489150618265129 -0.19826395096195043 5.4638344645655721 42 64 255 481 274 0
-0.28612022815282667 0.058809279819884777 1.3421996221722541 186 184 255 301 304 0
0.83115416686644428 0.45545203657327804 0.97742071493982641 81 96 121 712 466 0
-0.35098786190927744 0.42220383912557369 0.70387146461637462 28 255 13 194.400009 517.200012 1
-2.5500903898462455 -0.35687422736939567 3.5986936034646129 233 255 227 110.400002 249.600006 1
0.11300788072965284 0.21884835280757728 0.85670607048404379 85 98 118 436.800018 385.200012 1
-0.06031732547130314 0.36577429327015082 0.62726090272080259 183 162 153 348 511.200012 1
-0.062259930625197579 0.41750420603696109 0.62138077876098718 167 255 164 346.800018 546 1
-0.033515455306302122 0.40451773028341831 0.62628765279054499 255 164 167 363.600006 537.600037 1
0.55497109847650972 -0.89759046669465459 3.4935231831810976 124 140 255 445.200012 189.600006 1
0.8060413198501295 0.010179935129527341 0.95365621869322892 230 235 255 709.200012 291.600006 1
-0.39795097506228905 0.11459671023218709 0.52018580293674621 173 178 174 88.8000031 374.400024 1
0.16069466673169955 -0.98523529277209287 4.3654263649656881 255 11 36 399.600006 201.600006 1
-2.4108732608629957 -1.217633984977486 3.626500379369221 255 191 200 127.200005 159.600006 1
-0.39089395206728439 0.17025312271409099 0.51070487400836306 172 178 174 88.8000031 415.200012 1
0.81986489633721316 -0.012023821710513437 0.97384869366000348 211 215 255 709.200012 283.200012 1
0.8411980431912971 -0.074147739453715333 0.95218856396322815 255 63 74 723.600037 259.200012 1
-0.39958644511123209 0.39775061749191593 0.59554995988303316 255 157 162 127.200005 546 1
0.70364532025622872 0.36565396240788239 1.0097197033737688 255 105 119 651.600037 427.200012 1
0.65516732730873029 0.38213404549586683 1.0979313056715077 181 185 255 613.200012 422.400024 1
0.75828069957309774 -0.19400777071666289 3.7007216280602497 255 38 54 463.200012 267.600006 1
0.36346022469928752 0.21494053594483714 2.4122384677523208 255 28 64 439.200012 321.600006 1
-0.3241962438982865 -0.2297201267840398 1.354514574576734 255 204 215 291.600006 223.200012 1
-0.31354933987583355 -0.039467294793619108 1.3974822607274244 131 148 255 297.600006 277.200012 1
-0.39035664023029881 -0.5496772797485594 1.4207773234820713 166 199 255 277.200012 139.200012 1
-2.6249276816623199 -1.3970675520506111 3.907647054248248 210 255 183 126.000008 151.200012 1
-2.85545635691301 -1.927463464105118 4.0554533402434974 255 175 184 115.200005 105.600006 1
0.82997808243757076 -0.15519341786997365 0.94459669776782096 227 233 255 721.200012 225.600006 1
0.72957677865869863 -0.15921905608048859 1.9017859727802691 55 255 33 534 255.600006 1
-0.36443408394841104 0.45069353194451212 0.88698095004865285 43 56 76 228.000015 483.600006 1
-0.28350575723465765 0.056818677511303053 1.3361467084671041 186 184 255 301.200012 303.600006 1
-0.23134980834145935 0.29167332352486636 1.1886194428619152 172 255 158 310.800018 381.600006 1
0.42293651742195548 0.42828697233682211 0.68739274104938508 255 87 91 619.200012 526.800049 1
0.7882674768720066 -0.012482609307714989 0.92921774957174219 217 218 222 708.480042 282.240021 2
0.79966554647981003 -0.063410048000100722 0.89844877965028513 91 255 69 722.880005 259.200012 2
0.1374191723859424 -1.045774586352112 4.8054572763203334 9 26 255 393.120026 201.600006 2
0.70998966564928412 -0.85296365892032844 3.7906927880271741 124 143 158 456.480011 201.600006 2
-0.1454703341385874 0.27597845095348872 1.3881209977228404 175 255 161 342.720001 364.320007 2
-2.2705607941809349 -0.55317631661351885 4.223169029764998 178 181 255 177.12001 239.040009 2
-0.11651431783052124 0.32107740994276196 0.65467200952880789 77 84 95 316.800018 473.76001 2
0.85137059342490795 0.34341644229415574 0.98717536824598473 163 161 255 717.120056 420.480011 2
0.81070663378844665 -0.11464709797214065 3.8131394123055253 107 255 68 466.560028 276.480011 2
0.7456238915965645 -0.20344581522548458 3.5995296632492346 66 255 29 462.240021 267.839996 2
0.43936332266822387 0.43658788323426145 1.5552952954851551 255 71 86 491.040009 396.000031 2
-0.061831142683530183 0.41902980790567373 0.62237219057502458 164 162 255 345.600006 545.76001 2
-0.36106664005118705 0.23434109536513328 0.58532259280113541 184 180 255 145.440002 439.200012 2
-0.30371597041628506 -0.26764770234695778 1.3537564836129437 207 216 227 296.640015 213.12001 2
-2.6987257791721486 -1.1164852589580321 3.8003962090273968 220 222 227 112.320007 174.240005 2
-2.7230222917519402 -0.38134732426948992 3.8355957028433934 233 255 227 110.880005 249.12001 2
-0.39615219956584302 -0.55561958037318138 1.4316074127509473 136 165 198 276.480011 138.240005 2
-2.5256446726679846 -1.7242084099732529 3.6254150837803931 255 175 184 115.200005 105.120003 2
0.84695834384354807 -0.15935198053487379 0.96730991225449203 225 228 233 720 226.080002 2
0.72044968466749215 -0.15718525263749555 1.8697388665291035 24 32 42 532.800049 254.880005 2
-0.36814599077781196 0.45413243272959714 0.8933077416991968 41 54 74 228.960007 482.400024 2
-0.32238786946730214 0.1505841274227025 1.1620655853574311 174 180 182 276.480011 336.960022 2
-0.34916842223640732 0.23381615754078977 0.89702470310750437 103 255 69 234.720016 388.800018 2
0.44888739204586348 0.4492646133571499 0.73995584280947613 92 111 255 617.76001 521.280029 2
0.7397502283635512 0.060086416770633741 0.9299772673476524 122 255 181 686.880005 312.480011 2
0.1112500796918976 0.20338339487241916 0.79826908822604825 255 135 140 435.456055 383.616028 3
-0.16072596032976749 0.3083736505775953 1.7692386331534076 166 171 255 345.600037 354.240021 3
-0.23104576482472516 0.28618162988314405 0.98559384972570263 255 154 167 295.488037 399.16803 3
0.058262111752128448 0.18990378514968878 0.63444445054441145 150 255 109 418.176025 406.080048 3
-0.33239440146056509 -0.27335444598012648 1.3956959334745997 204 214 226 292.032013 212.544022 3
-2.5228455335230944 -1.0940291584692723 3.7589381900344963 226 255 220 126.144012 176.256012 3
-0.42776927601981429 -0.54337428057431569 1.439858346615809 255 140 168 271.296021 141.696014 3
-2.5123476732644137 -2.0276174255824877 3.6070506787549785 255 105 133 115.776009 72.576004 3
0.73972452471324379 -0.014793335317380904 0.934539355901714 240 255 236 686.016052 281.664032 3
0.70998966564928412 -0.85296365892032844 3.7906927880271741 121 141 155 456.192047 202.176025 3
0.76351186907018587 -0.19565100239488376 3.7347605226940912 255 38 54 463.104034 267.840027 3
0.68143924204380513 -0.14449026365115344 1.7551733474769289 53 255 28 530.496033 257.472015 3
-0.037328420949479413 0.4283606502291592 0.67288413196357122 172 255 169 362.880035 535.680054 3
-0.3508286491445245 0.42193996816726548 0.70475218236523496 13 28 255 193.536011 516.672058 3
-0.36292453161723781 0.37036378609623366 0.58658034253410141 173 167 255 145.152008 528.768066 3
-0.37823001105952225 0.34128198512755509 1.371861647143702 174 255 157 278.208038 383.616028 3
-0.22072808141224809 0.28318003257066349 1.1629745552456829 157 167 171 312.768036 380.160034 3
0.66452975972132844 0.43746240806642622 0.87606368071147833 89 116 255 673.920044 480.384033 3
0.85820095773006855 0.34719237959044008 0.99471966468062001 127 125 255 717.120056 419.904053 3
0.43881478400884316 0.4536386170715252 0.73011002104850975 74 78 98 616.896057 527.040039 3
0.63010642669700112 0.5044574838598278 0.94203099312610694 172 157 255 641.088074 495.936035 3
0.73880481963441946 0.30928652193187739 0.93130203827906988 255 89 89 687.74408 414.720032 3
-0.22592454720296962 0.45587353632684136 0.74865926388958148 255 168 169 267.840027 521.856079 3
-2.6394290306411077 -0.52223495679033904 4.683019795972128 255 50 68 163.814423 246.758438 4
-0.40983573748341073 -0.53373947045843639 1.4055750627154731 255 143 170 271.641632 143.078415 4
0.84477106628057375 -0.077622053049725359 0.96310954382659741 81 98 255 721.612915 259.200043 4
0.8286993265837832 -0.15472789837316503 0.94690178967231786 255 225 228 719.539307 226.02243 4
0.70364615495422134 -0.15242187597405374 0.9617563057067704 229 233 255 665.625671 228.096039 4
0.10683732669259524 -0.7296074009524256 3.418078350729771 9 27 255 393.98407 203.21283 4
0.73510322733920686 -0.18741765017904627 3.5423240860443928 66 255 29 462.412872 267.494446 4
0.71286335239321352 -0.15910800436911754 1.8453820820257003 29 38 49 532.915283 255.052841 4
-0.20223953210170531 0.42690580078087481 0.69455366379409389 255 166 167 267.494446 522.547302 4
-0.34362423635702954 0.43431508417579351 0.8558827483509357 43 56 76 228.096039 483.148865 4
-0.41492677349969453 0.36111965417791453 0.7155833656695707 140 139 255 165.888031 481.075256 4
-0.32010610696810327 0.1545888919967498 1.1713249733346465 255 172 178 279.936035 337.996857 4
-0.33745022205851405 0.39325579469974326 1.1871720545177558 168 171 255 277.862427 414.720062 4
0.80336756313873847 0.42789949509301661 0.9364690938350313 132 145 255 713.318481 462.412872 4
0.66600461986153281 0.33704128102362579 1.0794734758218947 210 211 211 620.00647 408.499268 4
0.52105330973687913 0.4061154639694089 1.4606208963980432 62 75 104 516.326477 396.057648 4
0.54633514800244831 0.35433074507313655 1.4881490670137432 76 76 94 524.62085 379.468842 4
-2.6704826245004751 -1.1201546086041541 3.773358594834789 255 220 221 111.974419 176.256027 4
-2.3506602331790942 -0.86647796258481846 4.4574444280921153 185 188 190 184.135712 211.507233 5
0.38307562364537773 0.27683802149567094 2.2989574881018759 89 255 28 442.921021 333.434937 5
1.025540108418423 0.095404108410648433 3.8184392094417108 78 255 56 490.199097 301.086761 5
-0.34020699349653005 0.42909905726459308 0.8544796561632535 38 52 72 228.925476 480.245819 5
0.85255550328555851 0.1100014666075947 0.9822539917539157 255 74 82 719.124573 325.969971 5
0.84985845487498168 0.060643445360323366 0.97668006894892345 255 79 88 719.124573 316.016693 5
0.81940214360024854 0.29085075267593585 0.94551359965998749 255 214 214 719.124573 403.10791 5
-2.5252350799560426 -0.34728606483438651 3.5897998934367283 234 255 228 114.462738 251.320358 5
-2.7842948640744254 -1.1988513608952214 4.1232066061793571 220 222 227 124.416016 176.670746 5
0.69278475938671291 -0.15352435328883249 1.7803441157573259 61 255 38 534.988892 256.296997 5
0.64900215424240371 0.40838375348754508 1.0910178457968098 115 128 149 612.126831 427.991089 5
-0.11736135768781203 0.33229635118837297 0.63746957271080606 116 123 132 316.016693 487.710785 5
0.78877870789754967 0.52516088230612989 1.0636382894843703 116 255 81 666.869873 472.780853 5
0.86041111146684834 0.35133544715721443 0.99020918740073305 255 163 164 719.124573 420.526154 5
0.68215042844174834 -0.12344407240787306 0.99673747742000818 236 255 231 646.963318 241.367081 5
-0.38548902795341 0.33631208126839113 1.3908810946979617 178 255 153 278.691895 380.713013 5
-0.24823836682148015 0.42094118391547575 0.96439228083772588 255 153 162 283.668518 455.36261 5
-0.34959513449950663 0.41922484398242849 0.69996955918957138 27 255 13 194.088989 515.082336 5
0.5838047924118539 -0.15768827674241215 2.6302084803700243 70 84 255 465.315918 266.250275 5
0.42426191896765392 0.42760241523588532 1.5640042150339848 119 255 76 490.199097 390.66629 5
0.42449112190169697 0.34332440646983819 1.5115275133294364 131 255 90 490.199097 375.736359 5
0.7788468752898039 0.055392322929470363 1.40147698282887 60 255 38 594.708557 303.575073 5
-2.702713369927257 -0.6254415982678605 4.9045316054971018 141 146 153 176.670746 238.878754 5
0.10961007158964242 0.1900750844440916 1.7904713810931729 61 81 255 405.596222 328.458282 5
-0.16248908408571511 0.28128940001231617 0.99281647035503462 173 255 166 318.505005 395.642944 5
-0.20990208950329292 0.27977506372479866 1.1504076981859805 165 170 255 313.528351 378.224701 5
0.31465726191733201 0.33136166062886241 1.9241955236550949 97 106 255 445.409332 353.341492 5
0.87418665693004627 -0.1672530317522759 1.0073444513068037 255 223 227 719.124573 221.46051 5
0.81692830583556919 0.44150790321503863 0.96983456116409561 255 106 118 707.678345 465.813599 6
-0.3934729030895987 -0.60863561982314052 1.4665376727000872 126 158 194 280.682556 128.397339 6
-0.21486211076820316 0.44179394683105144 0.72780700482472604 255 157 159 271.724609 516.575317 6
-0.31352062293651239 -0.27087802152293977 1.3657258840199169 204 214 226 292.626495 212.004898 6
-0.063125170177901313 0.36587943271426121 0.62700998088048743 163 255 173 346.374207 513.589355 6
0.19276887007554955 0.2748822697898311 0.83248404390077313 194 192 255 477.757538 418.037842 6
-0.23677001372788575 0.28846629828365283 1.010714862794059 255 150 163 295.612457 397.135956 6
0.74711296006171013 -0.13299268248865398 1.8010131696067555 255 115 129 543.449219 259.78067 6
0.67709854023431915 -0.14559134551019501 1.7155710828022397 61 255 38 534.491211 256.794678 6
-0.12552105535373015 0.12584492609744785 1.7507776220424307 164 174 183 352.346191 316.514374 6
-0.37018181879290712 0.43095970792019195 0.7264506643594929 255 68 72 191.103012 516.575317 6
-0.42284744985435185 0.3903817003390595 0.6715674083598191 173 255 175 146.313248 513.589355 6
1.2942855291186024 0.62925877972500621 2.5189810514815831 46 66 255 585.252991 385.192017 6
0.11567136696346497 -0.82932619573849331 3.7833250688432134 45 72 255 397.135956 206.032928 6
-0.30507146064347734 0.40411027269879118 0.96575964905963785 255 112 117 259.78067 450.883667 6
-0.32687719585061403 0.38026976267401447 1.1642141203272007 165 170 255 277.696564 415.051849 6
0.61355910519981716 0.37887437060760054 1.027824884679333 133 152 255 609.140869 432.967773 6
0.77199385988987768 -0.061697487976011371 0.92731610356540739 237 239 255 701.70636 262.766632 6
0.67712123807209945 -0.11856960731131859 0.9976300536454159 231 233 236 644.972656 241.864746 6
0.42746954040602181 0.34476542523348797 2.77159052525553 61 81 255 441.92572 334.430267 6
-2.2750695596681791 -0.57364578254510934 4.172165707147804 79 93 255 173.187103 235.892776 6
0.41397392961978552 0.41088166727955244 1.4992141992427421 95 125 255 489.701477 391.163971 6
0.69786964989000655 0.057857191530586563 1.9162156366328846 24 43 50 528.519287 301.584442 6
1.0711806694779262 0.10282774291931765 3.9919496202805043 66 86 255 489.701477 301.584442 6
-0.17596645954650092 0.26056652777468881 1.3449694095311042 159 163 255 337.41626 358.318146 6
-0.54425778173364481 -0.49898819265676164 1.6025668881951738 213 255 183 250.822708 164.826355 7
-0.4051501810746726 -0.58404104657290512 1.4531148439997361 255 126 158 279.488159 128.994537 7
-0.048028765611308033 0.29341176214774201 0.62782687655568203 255 179 174 351.151794 462.230438 7
-0.31513500291464047 -0.27413544150231428 1.3622229562707584 214 226 255 293.820892 211.407715 7
-0.421432841082514 0.20226007758508222 0.69624631588417629 174 255 177 146.910446 394.149963 7
0.54950355093009318 -0.14637086224099197 2.4575221908415168 87 255 42 462.230438 265.155426 7
-0.42188633295793643 0.42526207384596804 0.73548296298202875 174 178 174 164.826355 505.228607 7
0.63828050638151024 0.39724414553861154 1.0074432288866475 255 103 114 627.056763 440.731354 7
0.63318195140625233 0.3987338565716369 1.0678960865672631 135 155 255 609.140869 429.981781 7
0.81468243885580405 0.26859961492821877 1.4543702606169358 195 255 192 594.808167 361.901337 7
0.75181996089927128 -0.97046128165753331 4.4399278788444327 255 144 164 455.064056 204.241348 7
0.10697345267417405 -0.74937082041552672 3.4124739065155918 30 52 255 397.733154 204.241348 7
0.52993296499705911 -0.77450641601296899 3.1520298861737617 78 106 126 444.314514 200.658173 7
0.90238455267778872 0.72599941270722612 2.4105994718211829 255 75 86 523.144531 404.899536 7
-1.0488291336771387 0.10274839102164282 1.4862843946225892 120 255 90 114.661812 315.319977 7
-0.25344403293564588 -0.61697567711059143 1.5383858064376319 199 255 139 318.903168 139.74408 7
0.35026982589602651 -0.9213887652815127 2.971245304462502 110 255 30 422.81543 171.992722 7
