ply
format ascii 1.0
comment Written with hapPLY (https://github.com/nmwsharp/happly)
element vertex 109
property double x
property double y
property double z
property uchar red
property uchar green
property uchar blue
property float ix
property float iy
property uchar octave
end_header
0.75187024861560614 -0.077203626119696001 1.5204670597514083 250 255 249 574 268 0
0.72713669299694761 -0.2099803002753774 1.5289136366189791 246 247 248 568.800049 235.200012 1
-0.21409010387988081 0.35872549102924001 0.86072947359016805 127 145 255 289.200012 447.600006 1
-0.21697022634359175 -0.45869570339558097 0.87739916352062863 151 180 255 289.200012 87.6000061 1
-2.0457465907562056 0.69124881567300944 3.0227770012066602 213 255 198 122.400002 375.600006 1
-1.8970736960750889 -0.5293556269172579 2.0326272941366783 113 255 110 26.4000015 187.200012 1
0.87931026798947354 -0.37231799113106157 1.4692463409668273 255 236 239 615.600037 190.800003 1
-0.58738659692527317 0.7030147446351187 1.3959726320420671 175 255 175 222.000015 481.200012 1
-0.19997949702084661 0.080190204043153468 0.84278776166082103 14 133 156 292.800018 324 1
-1.5478390721002802 0.10193505312827683 2.9675270508790028 255 244 247 183.600006 301.200012 1
-1.3595427833804736 0.20100534948680135 2.4348567021813112 243 247 251 168.480011 318.240021 2
0.46959067981557223 -0.33523522880024359 1.6859006424404379 241 245 255 489.600006 211.680008 2
-0.34729003082528376 0.61196025194309522 0.96394990172240025 255 114 127 243.360016 531.360046 2
0.73055295758385697 0.55984994206462713 1.0622733074294537 152 170 255 645.119995 489.600006 2
-1.5272830584671357 0.69450133781257462 2.0084821732734692 72 77 255 93.6000061 420.480011 2
0.78244635469312485 0.5952658558834949 1.0195276221051 127 158 255 681.120056 511.200012 2
-0.22336910774686025 -0.46970220136516805 0.89892284354258756 59 155 184 288 86.4000015 2
-0.60058174202637993 0.71392756047884531 1.4165768884013996 180 186 255 221.76001 480.960022 2
0.73086980720763672 0.51763024579085648 1.6036433177961396 226 226 255 561.600037 411.840027 2
0.65857445147933702 0.61432000746854842 1.459063346463501 173 255 137 554.688049 449.280029 3
0.79116860490226903 0.55404854031664819 1.1079752349434555 146 162 255 661.824036 480.384033 3
-1.431049551042948 0.67330800765474108 1.5619411295737873 103 69 74 32.8320045 454.46405 3
-1.8306882094072394 0.072121481449355096 2.1066252822353242 245 248 255 53.5680046 302.400024 3
-1.5867346577935937 0.66217169022424172 1.7680196717508307 140 255 167 38.0160027 432.000031 3
0.70793499162261475 0.65647991523182614 1.1474323860698412 100 255 77 618.624084 504.57605 3
0.72249647297347264 0.62946319153805597 1.3484615757570024 174 255 128 590.976074 468.288055 3
-0.23594525553994661 -0.055840556172835343 0.98218380032821084 118 180 198 288.576019 267.840027 3
-0.30580017961843708 -0.010427372917841349 0.82592889584282148 248 250 255 245.376022 283.392029 3
0.61158737107995886 -0.48738547631549456 1.5878343525470324 239 255 227 530.496033 169.344009 3
0.62978746417082343 -0.046874578284442026 1.8031060337023073 250 251 255 521.856079 278.208038 3
-0.79761153041981858 0.29425940984314847 1.8625822679017157 255 183 185 219.456024 347.328033 3
-1.3170992768407386 0.21373136258893907 2.6651530902060294 255 243 248 191.808014 319.680023 3
-1.1483304798175169 0.53379160976098006 2.4076397366120021 130 255 124 202.176025 369.792023 3
0.58693826327129472 0.69049862977497778 1.1018022723986398 255 142 156 587.520081 528.768066 3
0.71422944425874579 0.13221453156260163 1.4257726542082256 255 161 178 575.424072 324.864044 3
0.88355716482019231 0.094960649647354595 1.3908730714014794 255 245 249 627.264038 314.496033 3
0.71375057925855168 0.48490997247338041 1.4798186198947629 227 255 227 566.784058 411.264038 3
-1.9284022800579033 -0.51455213055172344 2.0999204083226264 136 130 131 32.8320045 195.264023 3
0.68697347217698579 0.6138035348446752 1.3600590137191286 174 255 133 578.534485 462.412872 4
-0.33718386734921335 -0.015328831062234261 0.93256687179200437 248 248 250 244.68483 284.083252 4
0.73804815764312082 0.68252465667191242 1.2150395296822945 86 102 255 617.932861 505.958466 4
-0.28988078811789864 -0.16660681869691585 1.3318686937944069 173 255 64 298.59845 238.464035 4
0.72435598894451925 -0.046618009455857645 1.5357127647098832 249 250 251 564.019287 273.71524 4
0.61256160987654384 -0.39351831659892167 1.6899363020717013 232 237 243 524.62085 201.139221 4
0.60449448671332306 -0.13204837896256261 1.7060244798702318 247 248 250 520.473694 257.126434 4
0.81683999966063392 -0.47345206230596892 1.3199940069425091 227 231 238 620.00647 151.372818 4
-1.7044348351128091 0.69262160529394468 2.0710193806402373 195 195 194 64.2816086 418.867249 4
-0.23062098372925899 0.26050285377868276 0.93998505752882355 77 87 87 288.230438 396.057648 4
-1.757059676634749 0.73329091170519367 2.6886485071003525 139 146 158 132.710419 396.057648 4
0.58054917659744221 0.067817534403113361 1.6198604547696993 244 247 250 520.473694 304.819244 4
-0.19715742518871737 -0.32545707615558117 0.95891720434914252 177 255 125 302.745636 157.593628 4
-0.22529447861839813 -0.57496743767448644 1.0088930854410636 30 140 171 300.672028 66.3552094 4
0.2769725633142972 0.20010747779534155 3.3134779801524292 196 255 160 418.037811 311.040039 5
-0.69730138016846999 0.38598112096484732 1.5101894314847844 149 162 181 204.042267 390.66629 5
-1.3773306943573376 0.2054855545780718 2.7583007828831692 255 243 248 191.600662 318.505005 5
0.81179616409496913 0.54942745351768152 1.1834997475687583 170 255 137 646.963318 467.80423 5
0.67523632000397926 0.59986895458409539 1.3364684169100487 255 143 163 579.778625 457.850952 5
0.78193223613492768 0.63468184456276555 1.197942824401208 128 144 255 637.01001 490.199097 5
-2.0203627380187026 0.67833052400447635 2.9443905644820463 158 191 208 116.951057 375.736359 5
-0.23158821813041452 -0.059809180164223097 0.9376893057664395 104 175 195 288.645172 266.250275 5
-0.23087206975209051 -0.35913283536477436 0.9442741957576235 54 159 186 288.645172 141.834259 5
0.56574944341506006 -0.38434207051471225 1.8695932486485187 237 244 255 497.664062 206.530594 5
0.61605920966615346 -0.41251437070929786 1.7507586828477093 242 255 228 522.547302 194.088989 5
0.60184476023196654 -0.13773756295679396 1.7199568482711882 246 247 249 520.05896 253.80867 5
-0.17606516806873529 0.88498189058719723 2.5400238891874025 104 132 255 353.341492 425.502777 5
-1.8075885065151733 0.73510398599098803 2.2206654980178548 255 200 199 67.1846466 418.037811 5
-1.1394536056400129 0.68745158010320639 1.7070393456637643 61 71 255 129.392654 442.921021 5
-0.87456322232374628 0.34314305606727646 2.1032240993440032 201 255 200 218.972198 348.364838 5
-0.26631357556808055 0.61224523409659237 1.8789357887608071 169 255 119 330.946594 408.084534 5
-1.8637041877337701 0.075071016350249459 2.1515197842533471 248 255 242 54.7430496 303.575073 5
0.74778564520252222 0.66736316299303733 1.1949064827600999 82 255 56 622.080078 505.129028 5
0.73916177507290248 0.57071087679233046 0.92032041244878204 129 161 255 689.264709 522.547302 5
0.36698154675433337 0.23564420252395388 2.8920540120122489 255 184 226 435.456055 318.505005 5
-0.2005085494506984 -0.32676470034000771 0.95773523036456787 255 128 153 303.575073 156.764175 5
-2.0204611629884459 0.40085933062863083 2.4947119382656231 104 148 255 77.6355972 346.374207 6
0.7597501964338107 0.64222769740766272 1.2534704107071164 154 151 255 621.084778 486.715485 6
-1.6764929120485239 0.56051489445963443 2.3670037708363711 146 186 205 116.4534 376.23407 6
0.83152481214266727 0.45989786422134232 1.1848308984354823 121 137 158 656.916626 438.939728 6
-0.81247930510385036 0.3267700209631984 1.9209529152054765 214 214 255 217.976868 349.360199 6
-0.22366668945615231 -0.38493492819221453 0.87902536921315111 187 255 59 286.65451 122.425369 6
0.58806399250071739 -0.33906142337222656 1.5969371247307329 244 255 232 522.547302 209.018921 6
0.53306601847378432 -0.38532518164498475 1.9388869443067627 236 239 244 492.687439 209.018921 6
0.59500678720175615 -0.41831177518316254 1.692863415627528 242 255 231 522.547302 197.074982 6
0.83607374411510649 -0.48404740572362259 1.3563902621299331 238 255 226 618.098816 152.285217 6
0.56547099433232484 0.65860626963656166 1.7472010502308564 141 158 255 513.589355 429.981781 6
0.1792918777348258 0.1475869039985617 3.8507564000142818 82 152 172 400.121918 301.584442 6
0.73423159124831727 0.67153188415411336 1.1952712816124436 72 92 255 621.084778 504.631378 6
-1.6946710581131255 0.68360041967951712 2.0612229218123526 190 190 255 65.691658 418.037842 6
16.610100184553133 -26.55930322275325 47.531967420409138 255 165 193 519.56134 74.6496124 6
0.87791011630447247 -0.43191615021293472 1.1485205510273673 230 237 255 677.818481 146.313248 6
0.74102921213074335 0.66520487734930422 1.1837283372265537 255 69 79 619.890442 505.228607 7
0.77917575297404129 0.6291249650637939 1.2150192022669986 255 118 124 623.473572 490.895874 7
-1.5873760379183737 0.76676371165163437 2.4464791979775846 74 80 82 132.577713 412.065887 7
-0.71152015844443728 0.72252874538779555 5.7750082517822747 168 188 255 329.65271 336.819061 7
-0.22366668945615231 -0.38493492819221453 0.87902536921315111 187 255 59 286.654541 121.828178 7
0.86899365199007583 -0.4259655445429501 1.1283438132519121 232 238 255 673.638123 143.327271 7
-0.20542155357009184 -0.51369343568183423 0.90886455096648522 145 177 255 297.404083 68.080452 7
0.83607374411510649 -0.48404740572362259 1.3563902621299331 255 226 230 619.890442 150.493622 7
-1.3683482139448824 0.20071264145737366 2.7277098158229904 248 251 255 189.90863 318.903168 7
-1.2316181013046523 0.088918220734245268 2.2683338713259094 250 255 243 182.742264 304.570435 7
0.59513067895437732 -0.35085650123369616 1.6555363270827659 255 232 237 523.144531 207.824539 7
0.57747579062151888 -0.41061331338365892 1.6206359487363446 255 228 235 519.56134 193.491806 7
0.81993478931706143 0.44941043668994507 1.0341171793708837 255 127 146 691.554077 455.064056 7
0.12850795308974794 0.13327822978166257 3.3324534279584448 145 167 255 401.316345 304.570435 7
0.7602647093897521 0.61218105783963594 1.1576866468356064 149 255 125 634.223145 490.895874 7
-0.3033312977062832 0.70760936400942875 2.13243005102479 164 185 255 333.235901 412.065887 7
0.7037139279986584 0.62522923794495677 1.3476876615342128 255 138 155 587.641785 469.39679 7
-0.22741728625825264 -0.066116252891917748 0.9011418094250061 194 255 106 286.654541 265.155426 7
-0.19291494759901973 -0.15264671583342365 0.71923289822104408 197 255 98 286.654541 211.407715 7
