ply
format ascii 1.0
comment Written with hapPLY (https://github.com/nmwsharp/happly)
element vertex 96
property double x
property double y
property double z
property uchar red
property uchar green
property uchar blue
property float ix
property float iy
property uchar octave
end_header
0.91305664605503178 -0.44075027861110794 1.1529382930323457 227 231 237 688 142 0
-1.5114787282119706 0.10533232386638022 2.8301431703844955 250 255 244 178 304 0
0.76306081378305168 -0.073044692702047831 1.4927677716755845 255 248 249 579.600037 267.600006 1
0.91760853567128087 0.43904132266782747 0.99111382127795178 106 127 255 741.600037 459.600006 1
0.83356011877888103 -0.47644390764568889 1.3045694836614903 255 223 229 631.200012 148.800003 1
-0.57461009670028362 0.69459911042321743 1.2964896579182286 145 160 255 213.600006 495.600006 1
-0.20757149442986744 0.088905570389655603 0.82632055021429718 115 140 255 289.200012 327.600006 1
-1.0268103358138387 0.5062134046989335 2.1756715908448534 188 187 255 201.600006 375.600006 1
0.60955729472314446 -0.48360178976189605 1.5340498954609245 239 255 225 534.240051 167.040009 2
-0.17927941879077647 0.78491498827823147 2.9650081331911711 134 255 41 362.880005 390.240021 2
-1.5391240862328699 0.70357073449815766 1.9661509407671733 153 154 155 80.6399994 426.240021 2
-0.33486160252540165 -0.11969258515386416 0.89206374490550644 243 246 255 237.600006 236.160004 2
0.85547817684105842 -0.41322034616263947 1.0508561961068956 233 235 239 696.960022 135.360001 2
-0.21915746316055484 0.37303740289466369 0.82986823748213112 118 255 109 282.240021 460.800018 2
-0.55317040124501426 0.66814331006394045 1.2368571058734723 145 160 255 213.12001 495.360016 2
-0.8010421869525457 0.29957627386614893 1.8115066032749949 155 158 255 213.12001 349.920013 2
-1.3590465119588586 0.20567932324750554 2.3728394201253433 247 251 255 165.600006 321.120026 2
0.73227333247482562 0.50149858416190107 1.4787558690661191 230 229 255 573.119995 417.600006 2
0.73735008284648584 0.64909725056834788 1.3283978375547942 114 140 255 597.888062 476.92804 3
-1.6484919026068492 0.69167891884426536 2.4325226037154231 199 255 193 126.144012 393.984039 3
0.22592138949447693 0.12940456867367733 3.7829214578504224 182 201 255 409.536041 298.944031 3
0.59988840166741708 -0.37643023512912399 1.5787503879581832 230 236 242 528.768066 198.720016 3
-2.167013096773835 0.74468976287603095 3.2395749764823067 182 183 255 129.600006 374.976044 3
0.47435149701179391 -0.33702507928350611 1.6745425769498352 236 239 244 492.480042 210.816025 3
0.72421364464388804 0.52029659377838855 1.5312043269884992 229 255 229 566.784058 419.904053 3
0.71546053385205743 0.66691508043249725 1.1061792234041619 137 255 92 630.720032 516.672058 3
0.67369870747041483 0.63451784228892505 1.4451837498062758 255 106 128 559.87207 456.192047 3
0.89834598286687006 0.10225520530964669 1.3640341586140323 255 245 249 639.360046 316.22403 3
-1.9222780385643699 0.68239408940755097 2.5488731023269589 186 189 255 97.4592133 391.910461 4
0.70203461802924538 -0.24838995703692412 1.3599265567002261 236 240 245 584.75531 217.728027 4
1.0894749508321011 0.60017096147987692 1.5113994345164405 255 227 228 659.404907 439.603271 4
0.80851503997943142 0.55581812489379456 1.1247153803991852 146 163 255 657.331299 481.075256 4
-0.33008105637473717 -0.11457016407312193 0.86363933838141627 240 243 246 236.390427 238.464035 4
0.70702037641484261 0.13728648731911586 1.3516983015484598 199 255 160 582.681702 327.628845 4
-0.22534576952269969 -0.44550000501660825 0.85635656900391055 181 255 46 282.009644 85.0176086 4
-0.19567434955470242 -0.31290058913756824 0.87949238829918386 146 167 188 300.672028 155.52002 4
0.59516178233556505 -0.037860730572102708 1.6149965979217038 249 250 251 528.768066 277.862427 4
-0.70503675854185177 0.53633707758691229 1.5421406486988731 255 219 219 207.360031 416.793671 4
-1.8979379378196826 0.079362451739274809 2.137753719461263 245 248 255 45.6192055 302.745636 4
-1.483214478245737 0.22366299078640048 2.9514220187423721 243 247 251 188.697632 321.408051 4
-1.5908423017960427 0.11815360818618592 3.0049319321098542 250 255 244 178.32962 302.745636 4
0.7273375275652052 0.68288221318011821 1.1394381536117875 138 255 96 630.374512 518.400085 4
0.58304738151458979 0.073943022730182523 1.5825231421856358 211 217 224 524.62085 304.819244 4
-2.5269663736132468 0.74605372195481445 4.0753094787889097 161 143 255 149.299225 358.318115 5
-1.4587336906226169 0.70127226575914681 2.15599391045538 255 70 77 119.439377 415.5495 5
-1.9735729412690768 0.082604984500541073 2.2417499885774363 255 242 245 47.2780876 303.575073 5
0.78184455793887442 0.64156393474034135 1.1443823155156139 135 151 255 649.451599 500.152405 5
-1.159313930013508 0.7030335563566632 1.6815347857667398 66 73 255 121.927696 447.897675 5
-2.0172062908385482 0.67994824047045266 2.8775429622405397 202 255 195 114.462738 378.224701 5
0.83784344346350914 -0.48272841531281285 1.3122115987303067 228 236 255 629.545044 146.810898 5
-1.6972050519825812 0.6925112815713006 1.9976696932613951 194 255 206 54.7430496 420.526154 5
-0.2110734302835322 0.059150515969467132 0.75560865094621832 148 174 255 281.180206 316.016693 5
-0.23726864637411138 0.2694443001370348 0.90968105814023659 255 82 93 283.668518 403.10791 5
-0.79029975993993773 0.31742894952297995 1.8077162879633679 176 178 255 213.995544 350.85318 5
0.71966881467018484 0.51467366012268823 1.5212158804442826 230 230 255 569.825378 418.037811 5
0.81970378259653764 0.46151220747963978 1.1026442594231636 161 176 255 669.358154 450.385986 5
0.35957683957026898 0.23467502055104014 2.7043092904314694 255 199 233 435.456055 318.505005 5
-1.4352871104454237 0.6588099129592041 1.7883712286108153 141 142 255 77.6355972 426.995789 6
-1.7023645563830345 0.69059999764732605 2.0119451988893058 201 197 192 56.7337074 421.023834 6
-2.0325175136808795 0.4080770273958938 2.4506684095757665 174 255 142 62.705677 358.318146 6
0.27195591121590512 0.20046205082435903 3.1696454713501501 196 255 118 418.037842 310.542389 6
0.13317362687064138 0.13511155270647451 3.4665859948529647 155 191 201 400.121918 301.584442 6
0.84252487204591198 -0.15621127576517657 1.2570880286123769 245 246 248 636.014709 235.892776 6
-0.20131711156086052 -0.49618098310247916 0.81526128787614471 30 137 169 292.626495 56.7337074 6
-0.22630282886011654 -0.27308491398535817 0.87272879251418978 66 159 184 280.682556 164.229156 6
-0.17414000396260843 -0.30362598747892422 0.64425757039509435 39 155 183 280.682556 113.467415 6
-0.24099367195530785 -0.055271348551369004 0.9320037318094645 124 178 197 280.682556 268.738617 6
0.83470623184552095 -0.47905158381447155 1.3016697354338529 236 255 221 630.042725 146.313248 6
0.72939352370833266 0.67509554146174544 1.130659216755407 121 141 255 633.028748 516.575317 6
0.38738447230051887 0.46166801044868805 2.2053618516242626 154 255 143 450.883667 373.248077 6
0.58445364718753567 -0.33232952961783646 1.5335140301895187 237 244 255 525.533264 206.032928 6
0.59844039721132436 -0.39334232799640789 1.6142692475884566 235 242 255 525.533264 194.088989 6
0.75654002180561197 0.56992736922263876 1.1143039414122269 255 119 133 647.958679 483.729492 6
-0.26746202469367963 0.61577242881857075 1.8133836130754188 255 148 168 331.444275 415.051849 6
-0.66534851931874783 0.37292530057418966 1.4460085303720644 168 174 185 212.004898 385.192017 6
-1.5986244790990827 0.77482369152867658 2.4043867734342497 85 255 71 122.425369 415.051849 6
10.103542983926554 -16.167517274794452 29.832536335399482 201 223 255 513.589355 83.6075668 6
0.78082679493508889 0.6417556146711817 1.1757606126672737 173 255 139 634.223145 498.062256 7
-0.13239168664647316 0.64218881942087369 1.4467179829242083 255 32 93 347.568604 458.647247 7
0.1728630309547825 0.14890328879902093 3.9239481147903685 161 186 201 404.899536 300.987244 7
-1.4671025910324786 0.10798201527489773 2.7386396215101758 255 244 246 175.575897 300.987244 7
-1.3911044913935049 0.50655250170240829 2.0141805388021341 203 213 255 125.411354 379.817261 7
0.64116405484958716 -0.5060942876850687 1.625097329855322 239 255 227 530.310852 171.992722 7
0.90329222409922627 -0.19938014383516989 1.384188638971926 248 255 245 634.223145 236.48999 7
0.84919102847460115 -0.21510399131678493 1.0996845586470627 126 146 255 673.638123 214.990891 7
-0.30222624911710527 -0.69961368294199655 1.30607914939376 170 255 19 290.237701 75.2468109 7
-0.2329154967035838 -0.28753021603076634 0.91659260182858482 255 61 156 283.07135 164.826355 7
0.83470623184552095 -0.47905158381447155 1.3016697354338529 255 223 228 627.056763 146.910446 7
-0.22993498132263834 -0.059678141209757563 0.84969313904208388 255 73 160 283.07135 265.155426 7
0.59200247550586971 -0.34392987496766714 1.5915319306679798 244 255 232 526.727722 207.824539 7
0.53372607863895705 -0.38171620441806886 1.894558060864834 245 255 237 490.895874 211.407715 7
0.59144711520463744 -0.40894991328858799 1.6165441569057011 255 228 235 523.144531 193.491806 7
0.72869466393855786 0.55007600431197323 1.1915372026955895 108 128 153 616.307251 462.230438 7
-0.30672575310440919 0.71363441364285418 2.0867171958791184 168 190 255 329.65271 415.649078 7
-1.3889815072336154 0.31233271168834104 2.2975285789608932 244 255 238 154.076813 333.235901 7
0.76805130611698957 0.57443620826067543 1.1456441846750129 136 133 255 641.389526 480.146332 7
