ply
format ascii 1.0
comment Written with hapPLY (https://github.com/nmwsharp/happly)
element vertex 200
property double x
property double y
property double z
property uchar red
property uchar green
property uchar blue
property float ix
property float iy
property uchar octave
end_header
-2.5488510976367054 -2.659821175221242 3.9165747337719865 167 255 90 134 28 0
0.78344057343374096 0.38775874025175072 0.96495118048364725 22 34 53 696 442 0
0.79385590083954194 0.10359789469996812 0.90527472270965792 139 146 157 720 331 0
0.8229654336860337 -0.038278665988479413 0.88133143357466304 242 255 239 742 271 0
0.84266983346628799 -0.061005957148835707 0.89899283952336695 239 241 255 745 262 0
0.794559935084308 -0.068735950680700666 0.90622635922845785 239 241 255 721 259 0
0.92112468448911655 0.15632578512582729 1.4983714003461537 95 255 62 622 329 0
-2.3857459753748342 -0.67848431695902389 3.7932970906557628 233 255 224 142 220 0
0.91376833032390203 -0.18146033255012894 3.5554510657151863 75 101 255 485 268 0
-2.3581713946449074 -1.3577215858137071 3.7609454558409277 214 255 189 142 148 0
-2.581399583498003 -0.30474813030826808 4.0077258892388095 255 234 235 139 259 0
0.83024230123642928 0.24444630738142742 0.88957313345635114 126 255 86 742 394 0
1.3960928029691568 0.39622200618049352 3.1876328236682236 56 69 255 553 337 0
-1.4490693220135733 -0.69153079082101954 3.2881476598884882 192 255 186 214 208 0
-0.20890307472996206 -0.53232506155373405 1.3359100494720002 172 203 255 325 136 0
-2.4920000542333733 -2.2736265624643592 3.7775200854864339 174 255 99 130 56 0
0.96695362978821731 -0.11906588266307552 1.4270004872433879 255 128 134 643 256 0
0.79647886745096907 -0.13731799774586301 0.99464314593180259 255 229 232 691 235 0
0.25944682339815195 -0.75039218816573106 3.3615308725548245 145 163 181 412 202 0
0.58967213526256856 0.41220261369353739 0.62303609503687452 65 73 92 748 541 0
-2.4466582771017609 -1.6193803658270742 3.8815842153487989 194 209 255 141.600006 127.200005 1
0.17428321557653065 0.20750618373364357 1.6456712392519341 193 255 172 426.000031 337.200012 1
0.31740662537205744 0.18686609700710499 0.472127954611128 255 97 104 643.200012 439.200012 1
0.83313389913502034 0.34564790377814381 0.89376081763747295 143 160 255 741.600037 435.600006 1
-2.4654352245042528 -0.3072219195239459 3.66144690208445 255 233 235 123.600006 255.600006 1
-0.20394753082561645 -0.52828861396224891 1.3215084687457834 171 203 255 325.200012 135.600006 1
-0.18607878553751678 0.10771450768031619 0.38821437878250831 255 196 200 199.200012 394.800018 1
-2.343833048246422 -0.37340408529245989 3.7198708234785385 233 236 255 141.600006 249.600006 1
-2.5759572058657474 -0.38409774367169708 3.8173037840768589 236 255 230 126.000008 249.600006 1
-2.5092729130842346 -0.97031651310611156 3.7271382589402546 220 223 228 124.800003 187.200012 1
0.79695610478324419 0.31799592766217849 0.95568887538361746 150 152 255 705.600037 415.200012 1
-2.3464875654406363 -1.0628236595780542 3.7292040168536089 219 226 255 141.600006 177.600006 1
-2.3978388427868218 -1.0700537156988177 3.5802790349319937 228 255 222 126.000008 171.600006 1
-0.18542666516094708 0.23180404182501321 0.36617786497336624 255 97 106 187.200012 531.600037 1
-2.746759756373665 0.16700524832879204 3.9608919487909544 211 255 213 118.800003 303.600006 1
0.78261408803489119 0.38801256848113819 0.96322391610662939 34 54 255 693.600037 441.600006 1
0.019110026711526618 0.43426281009803103 0.87848994371176825 174 176 255 393.600006 477.600006 1
-0.041364475474679252 0.38162642480657194 0.8248423015502897 255 80 92 367.200012 464.400024 1
0.82632620179359273 0.080853449763421931 1.6495851888516821 91 110 255 577.200012 307.200012 1
0.79915296423519344 0.2254790688971221 1.5917770726829739 131 149 255 577.200012 340.800018 1
-0.12057894448364503 -0.033608380757448375 1.2291112802216559 117 144 255 345.600006 277.200012 1
-1.9802065012944099 -0.81892090011321494 4.0748615826934493 255 198 201 199.200012 211.200012 1
-2.4989511608561186 -2.5642291145181053 3.9075526215516967 168 255 89 138 36 1
0.72900643497568818 -0.42466428820334956 3.4698982920555101 86 121 255 465.600006 241.200012 1
0.91726224750426355 -0.18293954828691561 3.5786045948751002 28 77 104 484.800018 267.600006 1
0.80492111554378476 -0.35436514630445304 3.3345022706540934 255 34 72 475.200012 247.200012 1
-0.12235191285395741 0.39128620091315569 0.86461877085250061 255 186 192 327.600006 460.800018 1
-0.019151302946177451 0.40334756023568641 0.60560692551753625 92 108 255 369.600006 543.600037 1
-0.11982974018589576 0.14034845988476097 1.0213847656044583 255 65 79 339.600006 340.800018 1
0.79379232842507974 0.17853763456925459 0.90523414809788683 100 114 255 721.200012 363.600006 1
0.83912875022992872 -0.78271920190242272 3.4840257908878693 77 110 255 477.600006 204.000015 1
-2.3606218530427623 -0.37660248063120433 3.7502365493552761 233 236 255 141.12001 250.560013 2
-2.6759226548087076 -0.39918853482735372 3.96089179528198 236 255 230 126.720001 250.560013 2
-0.13458886647050461 -0.25410674021898916 1.2635265236253042 120 146 255 345.600006 210.240005 2
-0.21093008189608031 0.03147103042471272 0.64018160964274728 255 52 61 259.200012 306.720001 2
0.58711919269532087 0.43247836050930366 0.64098220939377881 76 255 61 738.720032 547.200012 2
0.2283387275955438 0.29175172617159684 0.46305768814339832 86 121 255 573.119995 531.360046 2
1.5124398510997246 -0.19778079211100941 5.3479935687906188 255 29 80 495.360016 273.600006 2
0.90353428038349293 -0.18897611474328413 3.4697426311903534 255 28 77 483.840027 267.839996 2
-0.021332439019403737 0.39283566330699687 0.78184602553430949 110 255 78 370.080017 480.960022 2
-2.3243455092554957 -1.3364708277185291 3.6989226989534827 199 214 255 141.12001 148.320007 2
-2.4381432688274671 -1.3764591723230333 3.6398879635543215 213 255 189 126.720001 142.560013 2
-2.5537699776789156 -1.6849774661402994 4.0284984317171393 195 210 255 141.12001 126.720001 2
0.24978782122345616 0.25137770865722664 0.42125099577560976 98 112 133 612 516.960022 2
0.16952012573103403 0.36742174856374737 1.8179738007361299 176 183 187 420.480011 365.76001 2
-0.026650261155369503 0.26607067990263811 1.0268058100530173 100 120 255 377.280029 387.360016 2
-2.7148176266082023 0.15958375566800442 3.9030013370556875 204 214 255 113.760002 303.840027 2
1.1292096243120793 0.16262299065657893 3.9763559669777395 255 23 72 495.360016 303.840027 2
-2.109605749745362 -1.9661682680537504 6.0670613792749242 201 217 255 249.12001 164.160004 2
-2.3030051219297798 -0.79826725592009706 4.0493859837442807 63 80 104 164.160004 211.680008 2
-2.4444152368656247 -0.76146042725207042 3.8665152743754181 223 230 255 141.12001 211.680008 2
-0.028983839607245487 -0.50580857616315988 1.2618064522536523 255 140 169 375.840027 135.360001 2
0.85247808168948302 -0.14142672136494577 1.6951686294297714 157 167 255 577.440002 256.320007 2
0.72406081040309545 -0.88854098525622249 3.4296877743622223 69 105 255 465.120026 188.640015 2
0.2695402877749567 -0.76242835972013112 3.4839764482661404 140 160 255 413.280029 201.600006 2
0.85126817842063907 -0.38612958393103824 3.6674872334162387 255 34 72 475.200012 247.680008 2
0.26265971917766262 0.188552127120727 0.46827197635041562 48 56 75 600.480042 444.960022 2
0.78772373962403008 0.3608120134218219 0.97538571771398308 42 48 67 692.640015 427.680023 2
0.80141716265566876 0.10486075181728056 0.91915378564990513 172 255 180 718.560059 331.200012 2
0.94370514037310493 0.37194486812865435 1.4131382550696368 156 165 255 637.920044 390.240021 2
0.3070636759832196 0.21227729898420111 0.69915761209989147 73 90 120 552.960083 407.808044 3
-0.1174994480368905 0.34448628753408961 1.007394849600326 63 77 97 340.416046 416.448029 3
-2.449193364989589 -0.25497664385548535 4.8745353694298661 73 86 255 193.536011 267.840027 3
-1.5601275555914893 -0.555868493322629 3.5690494338409047 213 255 212 214.272018 228.096024 3
-2.4667244670658981 -0.9372563047287692 3.9094291165793646 224 230 255 141.696014 195.264023 3
-2.3069672843138962 -1.100618647785585 3.6928216109835565 219 225 255 141.696014 176.256012 3
-2.3168140609704277 -0.24222286764868484 3.8212177754640151 239 255 236 150.336014 264.384033 3
-0.019540058692770812 -0.47653870479656113 1.2410239259035205 204 255 148 378.432037 141.696014 3
-0.21710194444217257 -0.5030598840223468 1.2921366166635546 255 148 175 319.680023 139.968018 3
-2.2898086622379066 -1.3236418694913561 3.7818857130713504 214 255 187 150.336014 153.792007 3
0.84318517889052691 -0.14115776060767421 1.6726140409035761 157 167 255 577.152039 255.744019 3
0.81890733493656531 -0.10073795628673707 0.94681738787511449 236 239 255 717.120056 247.104019 3
0.82040820224052524 -0.14652921949076184 1.0278721643676165 233 236 255 689.472046 233.280029 3
0.26604180001725025 -0.83383934610563215 3.6795598906495348 145 163 181 412.992035 202.176025 3
0.70099944183699425 -0.87680795480281837 3.3396910469582917 23 70 106 464.832031 188.35202 3
-0.18865149382428281 0.2116768836512955 0.42559057550642654 104 255 71 214.272018 478.656036 3
-0.048150968666599625 0.39483880195339083 0.85032223734033396 79 90 113 364.608032 464.832031 3
-0.13065239878327795 0.40215472341996794 0.89617671644970176 184 191 187 328.320038 459.648041 3
-0.16284680957541064 0.39684071119126063 0.62084573491605621 161 158 255 285.120026 535.680054 3
-0.14479993625163634 0.40620866180316206 0.75019314643212653 192 188 255 309.312042 497.664062 3
-0.21286378090020386 0.029670000301200053 0.64252172871886826 255 51 59 259.200012 305.856018 3
-0.11881036074830731 0.004565879737008921 0.93767911901015344 255 86 98 331.776031 292.032013 3
-0.19431485977908147 0.11104929451355142 0.33182360951606188 186 191 187 160.70401 414.720032 3
0.26260939197634914 0.1876209809220401 0.46374385896009707 255 43 50 599.616028 444.096039 3
0.77551274054445929 0.37596756197824194 0.88982085417981582 160 255 147 718.848083 451.008057 3
0.7684807237565765 0.38223591187034545 0.94955514075582093 36 45 65 692.92804 440.640045 3
0.82420148202527233 0.063103711726361061 1.0343050841124484 255 128 121 691.200073 314.496033 3
0.47712698744983817 0.32800210855261858 1.8511274319140782 61 81 255 485.222473 352.512054 4
1.423198842028826 0.16394070886578294 4.6486708020582732 255 24 71 503.884857 302.745636 4
-0.13971661640953581 -0.26468450259432841 1.3047874984086294 147 255 110 346.29126 211.507233 4
-1.7118798557610551 -0.5974208588455594 3.8366399458008198 213 213 255 213.580826 228.096039 4
-2.5047719845073582 -1.1574994858820058 3.9340268156862894 219 225 255 141.004822 176.256027 4
-2.4327480823982546 -0.35846722923891072 3.6543518705550913 236 255 230 126.489616 250.90564 4
-2.6057173631550512 -2.4080899928588511 3.891476313546999 172 255 95 126.489616 49.766407 4
0.84763583358873551 -0.14006631757862478 1.6785393159519924 161 255 144 578.534485 257.126434 4
0.81206052380798011 -0.14384684695101968 1.0056511476384375 236 255 230 690.508911 234.316833 4
0.27403519139025234 -0.75693057269047392 3.4558314352101536 139 157 175 412.646454 203.21283 4
0.79558305042259558 -0.72815673736478037 3.3039632779208103 33 74 105 476.92807 203.21283 4
0.91515347325237317 -0.18551268296302048 3.5670214620605534 255 28 77 483.148865 267.494446 4
-0.037031620315039593 0.35044160974714156 0.75362015158908036 79 90 113 364.953644 464.48645 4
-0.13653173414501096 0.40877808011414057 0.91517391298856854 255 186 192 327.628845 460.339264 4
-0.11058315507294536 0.33908642807667244 0.97590235768302835 82 101 255 337.996857 423.014465 4
-0.15430468786666529 0.39616311656682685 0.61269835910985682 156 162 158 284.083252 534.988892 4
-0.18755497074563221 0.11248788200751361 0.38940366237042906 255 191 196 199.065628 396.057648 4
0.77816405817197976 0.3802360436447253 0.95865551133296423 55 65 87 692.58252 437.529663 4
0.12135493894668886 0.32196178544199916 0.50055775548505599 176 255 186 474.854462 534.988892 4
0.82494821126635021 0.062412216130708353 1.6580810040536105 142 255 133 574.387268 302.745636 4
0.83006374770825275 0.19504763866081135 1.035885682526138 175 255 167 690.508911 358.732849 4
0.24257055436346545 0.1305835364448108 2.1124757568577066 193 198 255 429.23526 315.187256 4
-2.7012803678577937 -1.8869232924135071 4.0128337722081415 203 255 174 126.489616 107.827217 4
1.1703920049657417 0.10769575354285704 3.6485207024153441 69 96 255 505.129028 301.086761 5
0.86767026677523995 -0.78383793168050864 3.5767866834001558 79 112 255 477.757507 201.553955 5
-0.11884567523927658 0.0034412615624714359 0.94053387460565507 118 255 85 330.946594 291.133484 5
-0.13971661640953581 -0.26468450259432841 1.3047874984086294 75 112 137 348.364838 209.018906 5
-2.7444215007953119 -2.5382443464983844 4.0811613692271944 172 255 95 126.904335 49.766407 5
0.90168440664167837 -0.19842684352349893 3.4511272711697951 80 108 255 485.222473 266.250275 5
-1.797852131677943 -0.72958403233445024 3.7393783956954429 255 194 197 199.065628 209.018906 5
-2.7199959728756933 -1.2433619490016803 4.238005283347519 255 214 218 139.345947 174.182419 5
-0.17392774805546485 0.23111461017469914 0.51691569167042772 186 255 186 258.785309 462.827576 5
0.69521019909362447 -0.87165317069301507 3.3220632483992962 55 92 255 465.315918 189.11235 5
0.95790440422978629 0.040918178559174262 1.5412247887005806 94 255 56 622.080078 298.59845 5
0.81614350109066747 0.065164532071536219 1.6317739572284784 142 255 133 574.802002 301.086761 5
0.83663028668772776 -0.12303688640031035 1.5481148685812425 101 255 108 594.708557 258.785309 5
0.81879095472380004 -0.13676730415958913 1.5931798103321171 255 144 155 579.778625 256.296997 5
-0.18450748793310146 0.10943532191637739 0.38601748577460709 255 193 198 199.065628 395.642944 5
-0.22305542463190631 -0.51073020122216495 1.3107204284335909 204 255 148 318.505005 139.345947 5
-0.072980590648268562 -0.59846244399951976 1.3819511066357955 149 171 200 368.271423 121.927696 5
0.23198166621023258 0.37770768641955649 0.65300853587210617 188 189 190 520.05896 510.105682 5
0.76418908697629884 0.17459195655011872 0.94730702808807821 255 167 170 691.753052 358.318115 5
0.765644388440469 0.3725193521312245 0.94311261706481253 98 255 64 694.241394 435.456055 5
-0.093985775430857732 0.31593998339566609 0.91256095102687951 64 79 99 340.899902 418.037811 5
0.19583459294671984 -0.26137215282252074 3.7831125703695898 236 240 255 405.596222 258.785309 5
1.1465341840050625 0.46145615146151042 1.7561556938933378 157 167 255 637.01001 388.177979 5
0.86332106187191493 0.33059857794059533 1.5018822304205801 255 93 94 607.150146 373.248047 5
-2.5488356382119521 -0.5402310968261127 4.7710449702124382 73 100 255 181.647385 243.855392 5
0.24156258968868277 0.36057863713598581 1.1896818687791522 33 56 69 460.339264 405.596222 5
-0.20458360475251902 0.081254136083339201 0.63126203641718848 87 255 66 258.785309 338.41156 5
-2.5189396554028396 -1.1315806644800566 3.7642759434568998 227 231 255 121.927696 174.182419 5
-0.19030610714189877 0.29211497141615311 0.54869432216988323 188 192 188 256.794678 495.673431 6
-0.12415089211816066 -0.25862279414475575 1.2466702986331533 140 255 59 346.374207 209.018921 6
0.69000211933182898 -0.74409553878295287 3.0045738989954369 28 53 255 465.813599 191.103012 6
-0.063233487334507066 -0.57510893140190322 1.3222597894223072 255 147 170 367.276093 122.425369 6
-0.19001036484112466 -0.56921037090846882 1.3285910818764881 196 255 129 334.430267 119.439384 6
-0.04722311101968879 0.38336907007763321 0.82460088307260659 90 111 255 361.304138 465.813599 6
-0.12529534931154318 0.39653465566179014 0.89518103015778161 184 191 187 328.458313 459.841614 6
-0.11152522710741342 0.33726945055816238 0.97788080649792564 64 79 99 340.402252 418.037842 6
-1.4671409830823021 -0.58775419826978692 3.0780702755257248 200 203 205 200.060959 212.004898 6
-2.3997574334605067 -1.1144220447715927 3.7749009611559603 216 219 226 140.341278 176.173096 6
0.016856841971112979 0.3911798275519297 0.78370985533863646 255 171 179 391.163971 480.7435 6
0.80223324358439063 0.067913671049233709 1.6086047401584815 147 157 255 573.309021 301.584442 6
0.22986396261581243 0.18270497398433044 0.5293516915572124 28 37 40 552.407166 421.023834 6
-0.02925051806142448 0.26013180741084885 0.86588868465718472 117 255 83 370.262085 406.093903 6
0.1709191140197539 -0.23148164498199675 3.0577491341870284 255 235 236 403.10791 259.78067 6
0.81642525763627583 0.060840615525906194 1.0251570479106622 113 131 255 689.762451 313.528381 6
0.81049341750786352 0.18580208978086812 1.0167558318067584 172 255 167 686.776428 358.318146 6
0.79788520661928652 0.3997215791940526 0.95741183377199901 89 96 113 704.692383 444.911713 6
-2.6931370558936818 -0.657323100056038 5.1488006072552022 255 46 66 179.159073 244.850739 6
0.15030384096022542 0.2536142713996829 0.57224496894328758 129 138 154 480.7435 462.827606 6
-0.12986734713503301 0.0069781207323193206 0.96635321996594881 99 120 255 325.472321 292.626495 6
0.88294334077606462 -0.19592302276551171 3.3565705756012378 255 28 83 483.729492 265.752625 6
0.82233983020288681 -0.13346372964275577 1.6169349607269674 255 144 155 579.281006 256.794678 6
-2.7164950636694307 -1.8922972898855481 4.0342323277932222 185 203 255 125.411354 107.495445 6
-2.6784028051799105 -0.39400127673952279 4.0259853957329419 229 232 236 128.397339 250.822708 6
-2.5189396554028396 -1.1315806644800566 3.7642759434568998 225 230 255 125.411354 173.187103 6
-2.408963941512408 -0.97400462210913941 4.9605958773693404 186 188 192 204.241348 207.824539 7
-2.4791466551291861 -1.1266144683539114 3.874538019372634 255 216 219 139.74408 175.575897 7
0.26046155864567599 0.11686614551050054 2.2247999083315264 191 255 177 426.398621 311.736786 7
0.82098677146021637 0.058896754690451941 1.6988587127940948 147 158 255 573.309082 300.987244 7
0.014907410890212414 0.39493742999261627 0.79274822729424321 178 255 173 390.566803 480.146332 7
0.65057050925661897 -0.26930413613258869 3.5028036145747028 255 36 92 455.064056 254.405899 7
-1.7877627394449194 -0.35620050808835696 3.4165072765411657 255 62 80 179.159088 247.239532 7
0.82521748909193238 0.062111444768791352 1.0431282205546 255 119 125 687.970886 311.736786 7
0.89807435467429464 0.33357124289264217 1.5797768359334903 100 120 255 601.974487 372.650879 7
0.70722165142859283 -0.86117987737102075 3.3928518431736689 94 255 11 462.230438 189.90863 7
-0.11709990465403153 0.37994097009527061 0.85533734743155609 189 186 255 329.65271 458.647247 7
-0.032179126067613639 0.26398352233111583 0.86704847648926286 84 96 117 372.650879 404.899536 7
-0.13198895509212893 0.35945680651921652 1.045760875751633 66 80 101 340.402252 419.232239 7
0.72192583169660618 0.14254458864207431 3.2392772866787318 22 80 108 472.97998 311.736786 7
0.51548888061935838 -0.88380322680767132 2.818354750364275 123 255 38 458.647247 171.992722 7
0.79691837429349988 -0.72873586762967602 3.3187258998054965 34 76 109 476.563141 204.241348 7
