ply
format ascii 1.0
comment Written with hapPLY (https://github.com/nmwsharp/happly)
element vertex 63
property double x
property double y
property double z
property uchar red
property uchar green
property uchar blue
property float ix
property float iy
property uchar octave
end_header
0.4121983387215038 0.70086771112815371 1.2293267539274702 162 255 170 514.080017 505.440033 2
0.039597184231812799 0.67280068854417818 1.495810353206581 22 38 255 393.120026 460.800018 2
0.62962421884937325 -0.28793948892687649 0.72757404266064185 229 236 255 717.120056 133.919998 2
0.2339623972912066 0.25337175154841129 2.0032916585660683 255 245 249 427.680023 339.840027 2
-0.16843558459139985 0.67879989568007137 3.0365820865065949 161 255 166 362.880005 372.960022 2
0.49355134517672883 0.29511472689749585 0.8003257014059324 255 135 156 619.200012 427.680023 2
0.54281505289249687 0.40419028816957792 0.73617046084731719 164 255 158 666.720032 501.120026 2
0.61177663390833636 -0.45244813988707699 0.67556225574707973 171 192 216 732.960022 30.2400017 2
0.51637120898485178 -0.033637037073359521 0.99715429948588685 251 255 249 582.33606 276.480042 3
-0.14540328223371457 0.60230123154244541 2.6409617779427688 148 255 150 362.880035 373.248047 3
-0.3070952558900446 0.6587881684878123 2.8993591755845998 157 214 216 340.416046 376.704041 3
-0.34417373622223746 0.70789221418556192 2.3046508236679726 23 136 150 324.864044 407.808044 3
0.32455063718564947 0.24916351148384752 1.5405625223318227 241 242 247 464.832031 349.05603 3
0.61267803242885321 -0.44859331176824779 0.67287186439897972 217 255 176 730.944092 32.8320045 3
0.064221858163966417 0.38549274723549909 1.5506780406947396 85 81 90 400.204865 379.468842 4
-0.46761795937810824 0.69832046287595384 3.1152576478348557 157 169 255 325.555237 375.321655 4
-0.15485837094330446 0.64355684034533556 2.8257874580178353 148 255 150 362.880066 373.248047 4
0.52539574013641577 -0.14468866166914396 0.96344077077630441 255 247 248 595.123291 232.243225 4
-0.19725907085164618 0.6621174692055336 1.4394602757118271 255 26 71 335.923248 462.412872 4
0.49024638098005657 0.29371195518834037 0.8001601749017393 160 171 255 617.932861 429.23526 4
19.761717984925674 -31.192860267509857 58.166989302293686 179 201 223 516.326477 82.9440155 4
-0.31565366835277686 0.72201341552126763 1.9778637032339308 8 106 124 320.993317 425.502777 5
0.42358753910661751 0.71811940692244103 1.309269268418868 159 158 152 512.593994 502.640717 5
-0.34845590365289381 0.73331562823004748 2.4147080813302351 154 163 255 325.969971 405.596222 5
-0.21127897346446023 0.70627111950659138 1.6867377606569942 255 11 80 335.923248 447.897675 5
-0.26024524944624527 0.6841840779207975 2.3693543114541971 218 220 255 345.876526 398.131256 5
-0.11004457814460133 0.76851172136889034 2.9752627100269784 112 255 105 370.759735 388.177979 5
0.52325667855358082 -0.13240330273979461 0.75070821317624503 255 237 241 651.939941 223.948837 5
-0.136659408350575 0.81535201487621822 1.7392300126274476 255 228 229 355.829803 470.292542 5
-0.41459394995246024 0.92735816591851794 4.0663329123793215 255 164 218 343.388214 375.736359 5
0.077209435942045879 0.65936231671915035 1.1699061298565434 95 255 89 410.572845 500.152405 5
0.36439203210689208 0.73150233642149143 1.1768775926629838 189 255 198 502.640717 525.035583 5
0.45468315900328737 0.039270018463751444 0.8409736329028803 248 251 255 589.731934 306.063416 5
0.56388507284585376 0.17001180753775613 0.65636047243270301 222 255 221 714.147949 385.689667 5
0.032107644377141309 0.23408706250062983 1.8003324192438255 245 249 252 388.177979 338.41156 5
0.45668249724805277 0.66679009814091761 1.6586600046482225 183 194 255 489.701477 438.939728 6
-0.21782088620748263 0.74017932131379216 1.7870373671350528 87 98 255 337.41626 453.869659 6
-0.20123488408142709 0.6925946608862541 1.659191395173738 92 255 0 334.430267 447.897675 6
0.40527497579917382 0.54435489187742658 1.814005454907532 255 177 175 471.785553 403.10791 6
0.39762324677274896 0.69449642957933932 1.2023795772443879 183 255 204 510.603363 513.589355 6
-0.26117943188117909 0.67871382141217751 2.3131789760741972 202 203 255 337.41626 400.121918 6
0.34747301299510558 0.27916145539825055 1.7420574904571415 247 255 241 462.827606 349.360199 6
-0.32639432136866642 -0.18356440246033889 0.82920053334855659 128 143 166 232.906799 209.018921 6
0.52468072721136627 0.048013514552958214 0.98692118979634547 245 248 251 588.238953 307.556396 6
1.0521348016963497 -0.6260388251127369 2.003590422643482 235 239 255 585.252991 161.243164 6
0.077726897409285955 0.65708025165644257 1.1691142106506192 92 94 255 409.079895 501.645416 6
0.015829866782386404 0.20706825905990089 1.5978134384772389 249 252 255 385.192017 337.41626 6
0.57485469288185675 -0.33762157832662321 0.8092870869445834 255 199 214 659.902588 125.411354 6
28.158592046588957 -28.185880608984039 70.664244707696326 233 255 210 534.491211 134.369308 6
-0.49014829182403696 -0.21272090925326403 1.1891454301984963 34 70 93 232.906799 218.574081 7
-0.13116003222189221 0.68889043272264772 1.404609243138891 255 26 69 343.985443 469.39679 7
0.080487417945563466 0.71551449629402764 1.3694923513603268 42 47 52 404.899536 487.312714 7
0.16923341023034388 0.19739595896886375 2.6197792481065232 255 245 249 415.649078 318.903168 7
0.11327800431217816 0.18039782259325943 2.3583128541097258 249 252 255 401.316345 315.319977 7
0.048468075763365537 0.56099992038877988 1.634404278590984 88 89 255 397.733154 426.398621 7
-0.2233940521649469 0.74596549377524091 1.8234058557239869 23 84 95 336.819061 447.897705 7
-0.28208529063328935 0.59876546763705019 1.8606533492206676 141 255 0 322.486359 415.649078 7
0.092845681181405126 0.54719853148697817 2.4150513587336988 66 71 255 397.733154 383.400421 7
0.34593524926614183 0.27963772579927282 1.7458266701364753 246 255 241 462.230438 351.151794 7
0.16884484856637716 0.69874351761198827 3.9854410439771435 241 246 255 401.316345 358.318176 7
0.59251691968010189 -0.036769904623334071 0.74194840886767999 255 249 249 695.137207 272.321808 7
-0.25591366422930051 0.62380292155466566 2.1147677288369753 99 192 196 336.819061 401.316345 7
0.32602747778276675 0.61376773249976313 1.4855251826815907 173 189 255 469.39679 440.731354 7
