ply
format ascii 1.0
comment Written with hapPLY (https://github.com/nmwsharp/happly)
element vertex 143
property double x
property double y
property double z
property uchar red
property uchar green
property uchar blue
property float ix
property float iy
property uchar octave
end_header
-0.21139307850010569 0.43003704911796969 1.3455667728299128 142 255 233 322 412 0
0.99773426860697367 -0.42221099839634446 1.0945932092963462 218 232 255 733 139 0
-1.5522777106166363 0.10766361617196551 3.0174411163042283 255 243 247 187.200012 303.600006 1
-0.21160647290137247 0.35874429453465773 0.91435233535186899 255 113 129 295.200012 439.200012 1
-0.44470155083354346 -1.2723372003489706 1.8369368905888734 58 155 183 292.800018 24 1
-1.1061323091356572 0.77044187410170206 1.7953248879868235 18 39 255 145.200012 453.600006 1
0.57701962585987476 -0.47016151440144505 1.5661213836040027 232 239 255 525.600037 172.800003 1
-0.19849901580169593 0.08015199224053049 0.89653534486446951 141 167 255 297.600006 321.600006 1
0.98294481595600169 0.19758164455259886 1.0865047023684866 101 126 255 733.200012 358.800018 1
-1.0108695322695591 0.50043894832439229 2.251053418001006 188 255 178 210.000015 373.200012 1
0.58811194135404987 0.068879240040198741 1.715845156076929 251 255 245 518.400024 303.600006 1
-2.0481065352091559 0.6988738478338643 3.0711012221194762 255 128 176 127.200005 373.200012 1
-1.8440631376037149 -0.17207251244944288 1.9635746755855195 156 255 137 22.8000011 255.600006 1
1.0014047649636706 -0.42477894488298085 1.0976849794078918 218 232 255 733.200012 139.200012 1
-0.54164559437400817 0.65422849256719839 1.322599438514974 178 184 255 229.200012 478.800018 1
0.35749968024625089 0.68784099914624841 0.99829461460335001 164 255 127 522 552 1
-1.7642809902156493 -0.4088011356447252 1.9176992323980881 255 105 101 27.3600006 205.920013 2
-1.8099643336341709 -0.45974722495279075 1.9822057087906551 83 255 75 34.5600014 197.280014 2
-0.19017725911084771 -0.023884119839476803 0.8570032420136533 176 255 64 298.080017 276.480011 2
-0.2353737402634124 -0.055697879497612846 1.0358702825319961 255 102 172 295.200012 267.839996 2
0.66032108831149094 0.61122444735567116 1.5150781244470064 180 255 139 550.080017 442.080017 2
-0.15783791536649794 0.71963087674461601 2.7623577875400738 79 127 153 360 388.800018 2
0.96222571327639084 0.19467228090017574 1.0560760873521078 65 104 129 732.960022 358.560028 2
-0.2088870859469556 -0.21427861667619741 0.87831845596775437 170 194 255 293.76001 192.960007 2
-1.4293477135725512 0.67814834579394656 1.6120180982355636 54 255 97 46.0800018 449.280029 2
-1.5856567490185527 0.66766583935444235 1.8176581585882685 255 224 225 47.5200005 429.120026 2
-1.8355788827941972 0.77846489363140936 2.8466703046351505 147 158 175 136.800003 393.120026 2
-0.68612645509785741 0.52005454320818778 1.6014143466722617 195 255 197 218.880005 413.280029 2
-1.5267643964121489 0.69984605767000296 2.0582782595100912 55 59 64 96.4800034 417.600006 2
-0.3360266624538375 -0.12320444111801976 0.9960149808001395 243 247 255 253.440002 239.040009 2
-0.59832388650853785 0.71558063619615364 1.4689946411183579 177 180 186 228.960007 478.080017 2
-1.8327987422371197 0.078649188543323589 2.1557506899716099 255 238 240 59.0400009 300.960022 2
0.71072300147096978 0.65309927161356685 1.2035754527568017 69 83 255 609.119995 495.360016 2
0.89756222199525126 0.36380983522356214 1.1580594047164654 117 145 255 681.120056 408.960022 2
-1.0517465136055906 0.73032144400674959 1.6848222233715049 255 9 13 143.424011 454.46405 3
0.72461286937271852 0.62609093102188318 1.4046532809511305 160 255 122 582.33606 459.648041 3
-1.3202613215844039 0.21849119232728853 2.7156880450922349 243 248 251 196.99202 317.952026 3
-1.3621003904879316 0.20585333423337193 2.4852762366897929 243 247 251 176.256012 317.952026 3
-0.2909248312829833 0.59841063716208698 1.9174725718731036 255 215 202 323.136017 406.080048 3
-0.22873319986823448 0.26060983465204735 0.99359062590489966 81 81 255 293.76004 388.800049 3
-0.17684444098838581 0.75199648644093564 2.8421961740241475 255 99 135 359.424042 388.800049 3
-0.31071648492691439 -0.25391402938377983 0.90130369025771895 242 255 235 254.016022 181.440018 3
-0.32799191302708097 -0.19371927501656838 0.9621838232943043 232 238 244 252.288025 212.544022 3
-0.19754051446232745 -0.3254664957105895 1.0127956237565368 150 173 255 309.312042 167.616013 3
-1.9213476383575978 -0.50894774739236137 2.1259979378705252 74 255 66 34.5600052 196.99202 3
0.735764236203579 -0.21429968352380913 1.6090726965081936 247 248 255 561.600037 236.736023 3
0.60984201346019029 -0.39635992301872935 1.74612617492427 243 255 232 518.400024 203.904022 3
0.46710461290380789 -0.33753774106889756 1.7416678077336778 240 245 255 489.024048 212.544022 3
0.60880176666809938 -0.49025485539484581 1.6440504201000694 232 239 255 525.312073 172.800018 3
0.60271865688092685 -0.13485628992750742 1.7621119466864847 246 247 249 516.672058 257.472015 3
0.99560608095515601 -0.42235416229940759 1.0970854108198358 204 218 232 732.672058 138.240021 3
-0.53447190376328235 0.63457639042499814 1.2867724685645534 183 187 192 228.096024 476.92804 3
-0.40833437044122078 0.097577466145176039 1.1405054122865863 159 174 194 248.832031 321.40802 3
0.5899855360583528 0.68756104764840886 1.157592426686036 170 255 135 578.880066 516.672058 3
0.88352945976680108 0.090996375111283001 1.4476833433750125 252 255 245 618.624084 312.768036 3
0.71494822559763005 0.48161317336737319 1.5360289559192912 255 70 95 559.87207 407.808044 3
-1.7583176624520687 0.73971853543547805 2.7377791048713442 143 154 171 136.85762 391.910461 4
-7.3710060177387025 6.9350659866314928 12.495705163131589 13 22 255 157.593628 503.884857 4
-1.3807870214913058 0.21050258240314168 2.8086672399822907 243 248 251 196.992035 319.334442 4
0.74074293015338033 0.67905120047391554 1.2712597056234012 69 83 255 609.638489 495.590485 4
-0.20089320160027269 -0.32676180693654366 1.0116045591259617 62 144 172 304.819244 161.740829 4
-1.9226164381467608 0.68607054543179657 2.6573293378917517 255 114 123 107.827217 385.689667 4
-0.39071313604508218 0.35197328607258793 1.0626100686004643 186 187 186 244.68483 416.793671 4
-0.31141802062470925 -0.18362665230189545 0.89640077783591643 232 238 244 252.979233 211.507233 4
0.60000798473275152 -0.14053102572775122 1.7760384813904322 249 255 246 518.400085 257.126434 4
-1.4672883631630635 0.69445115302551574 1.6601857044743724 255 99 63 43.5456047 449.971252 4
-1.0876578350830233 0.74673649529661468 1.7374504025987481 255 9 13 143.078415 454.118469 4
-0.69654825481564764 0.38803185718443967 1.5624325111940855 255 165 172 215.654434 381.54245 4
0.37443168928522219 0.65927526035342909 1.0806299208651566 156 255 120 514.252869 518.400085 4
0.71424575267351997 0.12890144987538799 1.4820917888197247 159 176 196 568.166504 319.334442 4
1.0064808887155743 0.21075061419431673 1.128856282626165 255 73 105 723.686523 358.732849 4
0.363241100830207 0.23410529446179629 2.9473520135262889 198 205 255 433.382446 319.334442 4
0.57977375997031921 0.065071640569536182 1.6758196830982435 245 248 251 516.326477 302.745636 4
-1.8659303166069754 0.081737713270844559 2.2005505840990045 255 237 240 59.7196884 301.086761 5
-0.64624998682166845 0.49878181964466073 1.4998975638726595 192 190 255 221.46051 410.572845 5
-1.1381123770654269 0.69123452754567083 1.7579374482940242 255 54 60 139.345947 437.944397 5
-2.0225498802308848 0.68583496592692228 2.9927909409625846 126 168 186 124.416016 373.248047 5
-1.4475438876636204 0.69770269355085635 2.247529663171222 255 74 79 139.345947 405.596222 5
0.73694079294487946 0.66806672172874126 1.2514840689265867 34 45 55 612.126831 495.175751 5
0.78449392373619453 0.6310373616919227 1.2543019289451687 123 136 151 624.56842 480.245819 5
-0.41232530263532086 0.36275054228102821 1.124679938672501 255 169 171 243.855392 415.5495 5
0.172505701236213 0.14706027957083911 3.9055455561918055 153 174 255 405.596222 301.086761 5
-1.3792964911089962 0.22616837745349105 2.8346425356464779 243 248 251 196.577301 316.016693 5
-0.2309057749601533 -0.059696958436771475 0.99138951941632847 174 196 255 293.621796 266.250275 5
-0.22676275080084496 -0.57485290601915029 1.062767445641704 147 177 255 301.086761 77.1379318 5
0.61309547996398006 -0.41534992823979922 1.8069639891395024 236 242 255 517.570618 196.577301 5
0.52967337522613711 -0.38778780837379134 1.9948481118482988 242 245 255 485.222473 213.995544 5
0.63889414927372434 -0.5140671959658043 1.7289243620061328 232 239 255 525.035583 171.694107 5
0.81407586826818412 0.54566607914529897 1.239969427000652 168 255 136 634.521667 457.850952 5
0.54898459734143468 0.48047075909306391 1.3325597715348758 255 114 132 539.965515 425.502777 5
0.87657536442358697 -0.43593154598501505 1.2054759918933868 209 222 235 664.381531 149.299225 5
0.81486323832934149 -0.47718219772191794 1.3767883733314807 227 232 238 612.126831 154.275864 5
-0.22404828525692766 -0.38486879244589467 0.93284710257726999 160 186 255 293.621796 131.880981 5
-1.4711920845577868 0.67588006384809596 1.9590465814504521 152 154 149 92.5655212 421.023834 6
0.7232368149855557 0.52968955729006195 1.277329779893404 160 184 255 597.196899 447.897675 6
-1.8385907532841839 0.092816289529382701 2.1788055659501966 255 237 240 59.7196922 301.584442 6
-1.4392831596139462 0.41296935229563481 2.5047320765352517 255 159 166 167.215134 349.360199 6
-1.5878235495504534 0.77247305626221685 2.4960812900112019 75 79 255 137.355286 406.093903 6
0.76285550063249863 0.60860602443604961 1.2139913772941666 123 136 151 624.070801 480.7435 6
-1.6774946958285804 0.56653779308736674 2.4164164400550678 255 193 205 119.439384 376.23407 6
-0.22404828525692766 -0.38486879244589467 0.93284710257726999 59 159 185 292.626495 131.383316 6
-0.20637498455662273 -0.51368599430246409 0.96277698951158275 182 255 42 298.59845 80.621582 6
0.55133994436485723 0.60568292733331885 1.6796388285290487 171 255 133 510.603363 426.995789 6
0.8339536219290018 -0.48783876152612482 1.413242185372062 233 239 255 609.140869 155.271194 6
-0.22665526311669915 -0.066031264299101444 0.95485590563761669 94 176 197 292.626495 265.752625 6
-1.3717360771792109 0.20568610017355127 2.7781032947557689 248 251 255 197.074982 316.514374 6
-0.66331365002785025 0.50525933354406316 1.5512599209791329 203 255 206 214.990891 412.065857 6
0.83346180499218403 0.45606292992992836 1.2413836766893187 139 154 171 644.972656 429.981781 6
0.79880024092929647 0.64571570235432008 1.0822529244868573 255 128 145 671.846497 516.575317 6
0.88781067469090647 0.53722007141805461 1.0569203377415946 127 146 175 704.692383 480.7435 6
0.59267008921296815 -0.35364330883471018 1.7116639935757139 233 237 244 516.575317 209.018921 6
0.57488814160527246 -0.41334389557808393 1.6767319120710562 231 236 243 516.575317 197.074982 6
0.56938577418891456 0.68557808300858403 1.1671126428035379 131 145 166 576.295044 516.575317 6
0.083444648359109586 0.23369062415311026 0.47996047618286219 130 146 170 456.855652 474.771545 6
-1.6943411099630916 0.68959495684626493 2.1105479315566891 255 211 210 71.6636276 415.051849 6
0.37765761055344171 0.63854460246937883 1.0546537626176269 96 111 135 516.575317 516.575317 6
16.37840067152856 -26.608039580766185 47.641241406327403 255 165 193 519.56134 74.6496124 6
-0.23527922468063389 -0.29948324376825575 1.0586064381107922 98 172 194 292.626495 176.173096 6
0.12313584317507309 0.13278067886921852 3.3871051990829386 112 137 255 401.316345 304.570435 7
0.1884770028838989 0.15537725306679873 3.7054175978927724 78 149 171 404.899536 300.987244 7
-0.13975479503772847 0.72842713552009286 2.0580399063045087 180 255 144 354.734985 422.81543 7
-0.42065848010091011 0.75247264947989834 4.644649482136904 255 152 172 347.568604 351.151794 7
0.8235240667580912 0.56789480427162831 1.1818347315377054 140 155 171 648.555847 465.813599 7
-1.8127019900947636 0.60993968558842315 2.5878704415597449 211 255 192 118.244995 376.23407 7
0.8006805759429565 0.4312728001794639 1.3664292082673244 160 156 255 609.140869 412.065887 7
0.78166809403282489 0.62549632270926292 1.2713721175841446 255 123 135 623.473572 480.146332 7
0.86773864565166803 -0.42995360679398953 1.1852722694144209 234 255 208 662.888611 150.493622 7
0.63427290784795809 -0.49900132280541287 1.7232310250262595 239 255 224 526.727722 171.992722 7
0.43687516623772837 0.43809270786921628 1.7632337792024808 255 95 100 483.729523 390.566803 7
0.8339536219290018 -0.48783876152612482 1.413242185372062 233 239 255 609.140869 154.076813 7
0.82225899713439077 0.44557198478400828 1.0906409317067505 150 181 255 677.221313 447.897705 7
0.61832939566967604 -0.36921133008652207 1.8457866115506842 255 235 239 515.978149 211.407715 7
0.59218529609174642 -0.4210858813557028 1.7490110847317819 255 231 236 515.978149 197.074982 7
0.56657032656700812 0.65595323367851055 1.8029374416655397 136 153 173 508.811798 426.398621 7
-1.5747446632804221 0.77166317676444951 2.4821058689516375 255 68 75 139.74408 408.482697 7
-1.3413833678617824 0.30420859067069284 2.3170161124123947 238 238 244 164.826355 336.819061 7
-1.2341296734700662 0.093230733012139133 2.3191505464772009 250 255 244 182.742264 300.987244 7
-0.12142823066023567 0.59275518634819413 1.4208684821400146 255 148 167 351.151794 440.731354 7
-0.20266128694896146 0.55863661653340735 1.3168835704399786 165 255 118 318.903168 447.897705 7
0.74374708579777082 0.66171041588654411 1.2399623514916733 32 41 52 612.72406 494.479065 7
0.54063551007632737 0.70589076453979116 1.2678971477007099 255 93 106 551.809998 505.228607 7
0.84734898702416195 0.62016264465942728 1.5186161831061309 183 255 140 598.391357 447.897705 7
0.70428370217843006 0.48791611003469271 1.5520766804695878 113 255 66 558.976318 408.482697 7
