ply
format ascii 1.0
comment Written with hapPLY (https://github.com/nmwsharp/happly)
element vertex 160
property double x
property double y
property double z
property uchar red
property uchar green
property uchar blue
property float ix
property float iy
property uchar octave
end_header
-1.6845980711801327 -0.8522940052119351 3.2140254457148556 228 235 255 181 187 0
-2.0245453027662856 -0.89881711627445815 3.4591818537555055 227 231 236 160 187 0
-1.8207374334825062 -2.3533227151165383 3.3609875964010785 109 143 188 176 19 0
-1.7752785207970052 -1.0474766444881429 3.3408718891497324 217 229 255 181 166 0
-1.6866701062890712 -1.1527564926170575 3.216896476148758 211 224 255 181 151 0
-1.8708490135090901 -1.3646493041437435 3.24005043537155 209 214 224 160 127 0
-0.62612206632843015 0.32111290728221331 0.66687760306899979 38 56 255 25 472 0
-1.6404770446473895 0.032803476004571258 3.0987881281533554 242 245 255 181 292 0
-1.7303674013010437 -1.526657855128809 3.2829162426159235 194 214 255 181 109 0
-1.7673840717288911 -1.7388418228138236 3.3095011008949786 203 255 138 178 85 0
-1.9349172106698447 -1.7495387108285634 3.3282110541523529 150 175 205 160 85 0
-0.50362767795569208 -0.067267399683907603 6.3756597957366345 109 129 255 353 283 0
0.48609156699207989 -0.0086703720665517875 0.812124853894578 101 125 255 613.200012 284.400024 1
-1.9533263884547853 -1.4929099444139893 3.3557081454780393 203 210 222 160.800003 118.800003 1
-1.9505899055927705 -2.297393894652473 3.4068624389624382 147 189 255 165.600006 28.8000011 1
-1.6441552460634243 -0.67808234466138562 3.1267940971288248 229 232 237 180 205.200012 1
-1.7526422542941558 0.11025112409284876 4.1975664146476337 114 133 255 225.600006 297.600006 1
-1.9515475064349248 -1.3466856756554462 3.3528802400049562 223 255 200 162 133.200012 1
-1.8883665035985011 -1.7803638319418609 3.3230431169689187 203 255 139 166.800003 81.6000061 1
-1.7865133967406486 -1.9099819038219183 3.1766371920932039 123 156 196 168 57.6000023 1
-1.6735526729074746 -0.92072932120863593 3.1983631229121556 232 255 217 182.400009 177.600006 1
-1.7605634821841463 -1.0387033063981521 3.3090849598572554 229 255 207 178.800003 165.600006 1
-1.9362354843594765 -1.0960340650973042 3.3234364593035979 227 255 205 162 159.600006 1
-1.5835133833236354 -0.11262139902659965 3.3210977665244759 243 245 255 201.600006 274.800018 1
-1.4132469479289811 -0.19275610882889616 3.7241441561638915 84 103 255 237.600006 267.600006 1
-2.3656456208207164 -0.28827392033324828 5.3975299042145499 113 134 255 217.200012 267.600006 1
-0.79266310969931153 0.33855200626549425 1.4604640826132529 255 67 76 175.200012 378 1
-0.69624962381526001 0.31654670410658303 0.7453235000798959 155 165 255 25.2000008 451.200012 1
-0.19931795895155413 0.41370948742749308 0.67616726322894327 255 97 115 271.200012 520.800049 1
-0.19485313496253731 0.36741967003201981 0.61819798393553271 149 162 255 261.600006 517.200012 1
0.36283572354741467 -0.58080972934041442 4.0891092283543191 230 235 255 417.600006 232.800003 1
0.023363379036262844 -0.65139080104195046 4.6985591708740664 255 126 146 387.600006 235.200012 1
-1.7687470366805966 -0.25214122604174066 3.270260045799823 255 241 242 175.200012 259.200012 1
-0.086727414659286239 0.47064567710427407 2.7247165283246035 220 217 255 369.600006 354 1
-1.3761338452665619 -2.2327100757283285 6.6209270675300953 190 208 224 304.800018 159.600006 1
-1.8615856596630311 -0.33728686663776319 3.2224640052620144 255 239 240 163.200012 249.600006 1
-0.71549736736097191 0.3570086434981406 0.89163477654631951 255 189 189 75.6000061 441.600006 1
-1.9054356704404096 -0.94292072864174381 3.2792057974038258 255 220 226 159.840012 177.12001 2
-0.70203590798185656 0.29027668500561377 0.7842770421001688 105 255 78 38.8800011 432.000031 2
-0.59334025103868782 0.25649664885540407 1.5956190379471997 129 134 152 240.480011 349.920013 2
0.87092864588970309 -0.80123305412474177 3.2147552338670793 255 217 225 491.040009 192.960007 2
0.35549493340683314 -0.59147990469916767 4.0591648892086623 232 236 255 417.600006 233.280014 2
0.49968796911489866 -0.22347010389497635 0.81447277314293176 234 255 222 622.080017 182.880005 2
-0.18939936626474863 0.43383458304324901 2.2051389502849599 128 139 159 352.800018 364.320007 2
-0.1330824691143071 0.47009238289981448 2.8551520981535359 255 216 215 367.200012 351.360016 2
-1.5155967729849493 0.24142272733050255 2.6260234300811671 187 255 213 162.720001 325.440002 2
-1.2435426961736189 -0.66357753500272532 3.3922914691110164 86 103 123 244.800003 213.12001 2
-1.1986679809508658 -0.16385968664048112 3.2046048670585856 84 103 255 237.600006 267.839996 2
-0.66768574777738698 -0.12799780809382683 7.4870000011261046 88 108 128 352.800018 282.240021 2
-1.5164196602049884 -0.13244448192252981 1.7003822009412475 152 148 255 41.7600021 259.200012 2
-1.7687470366805966 -0.25214122604174066 3.270260045799823 255 241 242 175.680008 259.200012 2
-1.8615856596630311 -0.33728686663776319 3.2224640052620144 239 241 243 164.160004 250.560013 2
-1.8005531694416144 -2.0256727822317182 3.1943598605786545 255 115 150 167.040009 46.0800018 2
-1.9870933376022188 -1.4605466932363829 3.3683062981967513 224 255 211 158.400009 122.400002 2
-1.9237547388668426 -1.538898735310062 3.2930383833370174 255 192 203 159.840012 109.440002 2
0.48451232749836459 -0.18573751598213994 0.8159873660642134 228 236 255 613.440002 198.720001 2
0.48609156699207989 -0.0086703720665517875 0.812124853894578 101 125 255 613.440002 283.680023 2
0.47151080580546079 -0.34529774282287617 0.78698308390124105 175 194 216 612 120.960007 2
-0.23011860325392752 0.4159645763097537 1.0004686265911098 217 255 219 298.080017 447.840027 2
0.38331179604714094 0.23857971853964199 0.83115091920208251 109 106 255 561.600037 398.880005 2
-1.8701691875738686 0.12756509000542154 3.8035339652962561 237 241 245 196.99202 298.944031 3
-1.7091066235197374 0.11457379163210019 4.053396719506539 96 113 132 224.640015 297.216034 3
-0.51424914557005863 0.32946139470277591 0.69519564082926788 11 22 15 100.224007 471.744049 3
0.029118263441560766 0.46466686930744855 1.0636524066704556 217 217 216 392.256042 456.192047 3
-0.11592807084779744 0.43304322768404335 2.6695894299036076 213 255 215 366.336029 350.784027 3
-1.1656811260213065 -1.8814671486788432 5.6623138334099519 189 207 224 304.128021 158.976013 3
-1.7280635047179937 -0.72810042821204868 3.4090659378020791 237 255 228 190.080017 205.632019 3
-1.6341840830530359 -0.14282730092322135 1.8305661381036664 152 148 255 41.4720039 259.200012 3
-1.9306227212303937 -0.49602012107940241 3.3266384706602512 237 239 242 160.70401 231.552017 3
-1.585477634004183 -2.0015155652302079 5.8193884923565316 255 203 213 279.936035 157.248016 3
0.57495198484052168 -0.49721082428513097 0.86338894178440362 170 203 255 637.63208 67.3920059 3
0.60595678092169758 -0.37950240052977513 0.82662976587563763 255 171 190 663.552063 110.59201 3
-0.19931795895155413 0.41370948742749308 0.67616726322894327 255 97 115 271.296021 520.128052 3
0.59878915670834698 0.035915054638145552 0.79870127950824599 255 113 140 675.648071 305.856018 3
-0.18437597124784344 0.28222586205906763 2.7115302661840563 195 255 169 354.585663 329.702454 4
-0.9784573534505796 0.32212245128409039 1.5154018542278993 96 88 66 136.85762 364.953644 4
-1.1063594853745946 0.27888055781494731 1.2829198727439604 255 142 147 51.8400078 375.321655 4
-1.1986679809508658 -0.16385968664048112 3.2046048670585856 67 89 109 236.390427 267.494446 4
-0.57686047251375916 0.27010866883211593 0.67435178610793289 255 200 201 55.9872093 437.529663 4
-0.19052814837320331 0.40685496687071049 1.7083010680539452 105 255 69 342.144043 379.468842 4
-0.12568244087540958 0.45023513825363493 2.669407234109384 214 213 210 364.953644 352.512054 4
0.026270023835301526 -0.64355634239319315 4.684628669804872 145 166 255 385.689667 238.464035 4
-1.5100266793133348 0.27972682326368437 2.6705258483469563 255 216 210 167.961624 327.628845 4
-1.785957431435631 -1.0783588153586641 3.3242258478500482 228 255 206 178.32962 163.814423 4
-1.6599401406140388 -0.21330645402949516 3.2982917688392632 244 255 241 190.771225 263.347229 4
-1.8557683224954626 -2.0913995068401348 3.2882846277182867 148 191 255 165.888031 41.4720078 4
0.48638389395493731 -0.22564750853254983 0.81715047467674173 255 221 226 611.712097 182.476822 4
0.5744494815497998 -0.038655813364357319 0.80296696932883727 255 138 150 655.25769 271.641632 4
0.39411624621067154 -0.44590551955524727 0.83224795604323987 202 255 131 566.092896 80.8704147 4
0.48098787810242893 -0.35414889989892362 0.81413527810058528 255 174 193 611.712097 120.268814 4
0.61219167167552946 -0.38375272636415364 0.84133291785797204 255 172 190 663.552124 109.900818 4
-0.2320463729731812 0.40706247591659234 1.0041782389443676 211 255 208 294.451233 445.824066 4
-0.058406631722096147 0.44916241775252352 1.0733544309679075 99 255 76 362.880066 449.971252 4
-0.2010039909011887 0.38265488329207031 0.91865073315976553 217 255 219 298.59845 447.897675 4
-1.5391089717768565 0.11114064232602061 3.7127880585481119 255 98 114 223.948837 298.59845 4
-0.49113101697486772 0.31980535511063479 1.0324851087475362 255 194 201 203.21283 402.278442 4
0.38343303820773511 0.40349285792268991 0.79489286843738149 4 4 13 568.166504 483.148865 4
0.38916363924246011 0.13282322812032971 0.85539500208496455 255 119 134 559.87207 350.438446 4
0.20858784798076879 0.46541845990796965 1.786057558202399 255 171 178 431.308868 387.763245 4
-1.9138430196621892 -1.0995699299068453 3.3142895892092934 215 227 255 161.740829 159.667221 4
-1.2973678548419625 -2.09341322262688 6.2327947974602429 190 208 224 304.819244 159.667221 4
-1.4236354173297943 -1.6473176872955015 6.0792114702219191 213 222 232 296.524841 182.476822 4
-0.69091605899824171 0.31422814666652016 1.5875593393327248 201 199 255 213.995544 360.806458 5
-0.44919626004572599 0.29598769896361865 0.9598971062434678 187 198 187 204.042267 400.619568 5
-0.32451512530137916 0.092749185526156686 3.290123940362351 103 122 148 340.899902 296.110107 5
-1.1523087652035571 0.2601596218837095 3.8608852882314588 127 140 255 273.71524 316.016693 5
-0.20381938825559165 0.40993765728227832 1.8038727885942776 255 79 90 343.388214 378.224701 5
-0.12053109339919432 0.40929547079527306 2.6072198410647429 215 212 255 365.783081 350.85318 5
0.48701381091458573 -0.011719275662128145 0.81809534108768811 86 113 255 617.103455 283.668518 5
-1.5723277625269207 -0.19798161359417776 3.1688278705059512 255 241 242 191.600662 261.273651 5
-1.5193065623936799 -0.44760663903984199 3.3933557795015656 255 110 123 211.507233 241.367081 5
-1.8631188519952011 -0.3299189158229161 3.2538799304944055 238 240 243 164.229141 248.832031 5
-1.3045898146826538 -0.18224967660529359 3.4361332923189378 67 89 109 236.390427 266.250275 5
0.57228715673301811 -0.4955952276925939 0.85648588069199372 255 143 170 639.498352 67.1846466 5
0.48444836565192173 -0.18746793224979708 0.80544696475618882 230 236 255 617.103455 199.065628 5
-0.06365789548640377 0.45943249855182511 1.1268486182698882 255 82 85 363.294769 447.897675 5
0.29888602026678368 -0.57658355146919182 4.6508634332978742 153 178 188 408.084534 238.878754 5
-0.77536304878446671 0.31843139178839569 0.89985727052701514 105 114 255 49.766407 427.991089 5
-1.3561995524722024 0.081223467571467561 3.2779593609425008 255 98 114 223.948837 298.59845 5
0.58632098572895119 -0.4787283985973686 0.8443172150342575 255 137 167 651.939941 72.161293 5
-1.1656811260213065 -1.8814671486788432 5.6623138334099519 255 190 208 303.575073 159.252502 5
-1.785957431435631 -1.0783588153586641 3.3242258478500482 255 206 216 179.159058 164.229141 5
0.20555264898787529 0.42914875897566318 0.93440015363071227 217 218 215 468.799591 465.813599 6
-1.7938450992043218 -1.0815064960443268 3.3245492861064485 207 216 228 176.173096 164.229156 6
-1.9138430196621892 -1.0995699299068453 3.3142895892092934 216 227 255 161.243164 161.243164 6
-1.8965392237341465 -1.799073809996717 3.3477814707441835 255 137 167 167.215134 77.6355972 6
0.58750914941121701 -0.46782377110078666 0.84105443814950576 202 255 137 650.944641 71.6636276 6
0.49219745918563362 -0.25953044771158518 0.80976859579872018 255 195 210 615.112793 164.229156 6
-0.65037984004764149 0.4011539145791152 0.78215763168439323 169 255 181 62.705677 483.729492 6
0.61058747440780636 0.036803602926742618 0.79938387106622066 136 157 255 677.818481 304.570435 6
-1.5604656724623283 -1.7847729596462105 6.5358021372941399 218 225 233 292.626495 182.145065 6
-1.8804209499265454 -0.48543893191109055 4.1629829233970357 110 125 145 212.004898 244.850739 6
-1.8631188519952011 -0.3299189158229161 3.2538799304944055 238 240 243 164.229156 247.836716 6
-0.74914260200586802 -0.00016664039951413967 6.2289021362434163 105 125 255 337.41626 286.65451 6
-0.16403838335587162 -0.45319077351779391 4.2554503746115051 148 161 158 364.290131 247.836716 6
-1.2608302475754525 -0.17691480283516448 3.3259583320287605 255 73 95 235.892776 265.752625 6
-0.38013127095840193 0.35317646380838474 1.0810781702896701 255 220 221 247.836716 412.065857 6
0.21112266355828735 0.45635882665250666 1.1308327717380284 220 221 219 456.855652 447.897675 6
-0.70126043932051818 0.27497037155695647 0.82337179241126801 193 195 193 56.7337074 415.051849 6
-1.6680790869073152 0.12251723676950188 3.9235746680507377 97 111 129 220.96286 298.59845 6
-0.22835686125298316 0.30999133738802187 3.0527667272861341 255 198 206 355.332153 331.444275 6
-0.049494409220274926 0.43790065740923872 1.0753094353580099 85 87 105 364.290131 447.897675 6
-0.51989641471178349 0.24045807433511815 1.441721643526314 255 180 180 247.836716 349.360199 6
-0.48843178347246674 0.31341774261590188 1.028378495502936 255 197 203 203.046951 403.10791 6
0.58429207613830281 -0.4775726313871298 0.84747240034998361 137 167 202 648.555847 71.6636353 7
-1.4591441369174278 -2.1858461831158307 6.7207543236085447 191 208 225 300.987244 161.243179 7
-0.23979825075892913 0.42083063080390615 1.0392222429308053 215 212 255 297.404083 444.314514 7
-1.9366167152181633 0.34038831964585275 2.4765379765406452 160 255 127 82.4131775 340.402252 7
-0.36344558801841909 -0.01990552039114829 3.9751101808207023 255 84 105 343.985443 286.654541 7
-1.8613492490500922 -0.33208324346900497 3.2840365436249157 240 241 243 168.409531 250.822708 7
-1.1025168460701731 -0.16679397805089077 2.9226091276131942 78 100 123 232.906799 265.155426 7
-1.0989447678634132 -0.40644236524909594 3.4497929207610309 223 223 255 261.572266 243.656357 7
-1.1900078627552757 -0.70176825105947915 3.2750027382353686 255 81 99 243.656357 204.241348 7
-0.067348273932855918 0.46969593595684833 1.1718497703397874 89 108 255 365.484528 447.897705 7
-0.51464844792530084 0.21683296711068425 1.9535863721908804 255 168 180 283.07135 333.235901 7
-0.12220436850478422 0.47291231817198087 2.0989789235778056 215 212 255 365.484528 379.817261 7
-0.20077734888274423 0.39120753293937205 1.4329782610143209 179 120 255 329.65271 390.566803 7
-0.64413186119399857 0.28359705694818582 1.7562661372733386 255 170 175 243.656357 347.568604 7
0.49467568760688807 -0.22656410789463766 0.81593102376601045 223 228 234 616.307251 182.742264 7
-1.9317150038397264 -1.8425932494100721 3.388040629641297 175 205 255 161.243179 85.9963608 7
