ply
format ascii 1.0
comment Written with hapPLY (https://github.com/nmwsharp/happly)
element vertex 137
property double x
property double y
property double z
property uchar red
property uchar green
property uchar blue
property float ix
property float iy
property uchar octave
end_header
-0.40410703509752066 0.4038998096805031 0.82007584478256801 137 153 145 196 478 0
-1.254944532899843 -0.72541483028001541 3.9574125124898849 219 255 217 262 217 0
-0.39207968299203499 0.44793442024879798 0.64413151402936852 255 13 24 151 553 0
-1.9734480130653052 -0.26904504332860169 3.5107878484467561 240 242 255 169 259 0
-2.0844445928759781 -2.2958844032051475 3.5648244769036839 103 137 182 160 40 0
-2.0138625273152906 -2.709491561037531 3.9687353105784879 179 255 96 190 27 0
-2.0120483835261296 -2.5097229204422415 3.5720992994347469 133 178 255 169 19 0
-1.9621626907928755 0.27331047277139026 3.2573837707589073 213 255 220 154 322 0
-1.9463086010100188 -1.5742343912958172 3.5381708688788702 210 255 173 174 118 0
1.3221953139283189 -0.12798823079598823 1.4645126013342986 124 255 50 730 253 0
0.20973416634175379 -0.023817822569532923 1.0880342855789382 255 191 196 459.600006 279.600006 1
-0.41458679391883102 0.42937724716800107 1.0880916484073431 255 72 101 235.200012 439.200012 1
-2.1158019455624117 -1.1166873287102266 3.5256618116853637 214 225 255 153.600006 165.600006 1
1.3235812277029391 -0.12755808594985851 1.4677456792925425 90 120 255 729.600037 252.000015 1
-2.0992106035572897 -2.0912109393204608 3.5199980623199303 193 255 137 154.800003 61.2000008 1
-1.9762472179362076 -1.0752544662254582 3.5644301353749075 255 208 216 171.600006 172.800003 1
-1.916764554219609 -1.109152700282743 3.4994122478388441 202 212 224 172.800003 165.600006 1
-1.8185568746402199 -0.69393800481467061 3.3140407035965915 255 226 230 171.600006 207.600006 1
-2.1656988503329808 -2.357471454959513 3.6555659580891726 182 255 104 158.400009 40.8000031 1
-1.973186897811174 -2.3632169698217753 3.5250193231579519 180 255 101 166.800003 31.2000008 1
-1.4423076810277982 -0.59893328810201885 3.64784249512928 255 79 93 231.600006 225.600006 1
-2.5029689521241951 -1.9351168016623721 4.4240538278152375 196 214 255 169.200012 121.200005 1
0.23584790938251821 -0.48349839952396734 1.0679700558160943 211 255 172 466.800018 115.200005 1
0.22843030245804508 -0.40067173019611757 1.0108683279386868 199 217 255 469.200012 136.800003 1
-1.7927246229677904 -2.0263754562141689 6.1394542706628599 185 202 220 272.400024 159.600006 1
-1.3772334316673911 -0.1757969548197908 3.4102882311653744 73 92 255 229.200012 267.600006 1
-1.0562238612328281 0.071400926983023694 3.4355513973176532 255 128 132 267.600006 294 1
-1.8015453450170651 -1.8353087112782296 3.4248472783834081 124 156 195 180 81.6000061 1
-1.975019634332118 -1.9428885846675747 3.3847190537636944 255 135 160 159.600006 69.6000061 1
-0.66806738934225018 0.29367967804130257 1.1895325589588059 184 177 255 169.200012 381.600006 1
-0.81293969135853006 0.29093449401401955 1.2160771428784529 255 111 124 127.200005 379.200012 1
-0.71515097461198152 -0.088396448655416404 6.888064611165774 134 149 154 344.400024 282 1
-1.9734480130653052 -0.26904504332860169 3.5107878484467561 239 240 242 168 259.200012 1
-2.1048032405875663 -0.3608041332923525 3.5114515905005823 236 241 255 153.600006 249.600006 1
-2.2170018346669136 -1.5644752083182072 3.6775079686335728 211 221 255 153.600006 123.600006 1
0.39893797189298807 -0.56623469499520507 1.0768070263775211 167 200 255 525.600037 85.2000046 1
0.32281988922866967 -0.37746396717090369 1.0205427078732836 209 222 255 505.200012 145.200012 1
0.23712669992688984 0.051850484789797424 0.39095965296165103 65 90 255 617.76001 339.840027 2
-1.1864301150478629 -0.5621234753374672 3.4450290439940954 222 222 255 253.440002 226.080002 2
0.3237765328938168 -0.27629246184584672 1.0117409663067076 231 255 216 506.880005 181.440002 2
-2.3206076426025772 0.17304830207536864 3.7100724486073746 222 212 220 144 303.840027 2
-0.4121648171591068 0.30551090067873987 0.54082190252369378 116 122 130 92.1600037 506.880005 2
-0.40108163353842019 0.45712260014816364 2.6009244556944018 204 203 255 325.440002 357.120026 2
-1.3750509271765967 -0.17871086335061642 3.411179949911872 55 75 94 228.960007 267.839996 2
-1.891127348653074 0.098465821794567671 4.323104686235987 82 100 119 216.000015 295.200012 2
-0.69277268883292287 0.30081229078638305 1.2286469985273711 147 162 160 168.480011 381.600006 2
-0.24087187021785317 0.45977881917884883 1.3372950503051499 69 77 95 312.480011 421.920013 2
-1.9480113698272241 0.30787531274126623 3.5203692000648461 255 133 143 171.360001 322.559998 2
-2.2221536129591688 0.35885381635182978 3.7310326974274579 213 255 220 154.080002 322.559998 2
-2.08366447428733 -2.1493429318488539 3.5568753766768095 188 255 114 158.400009 57.6000023 2
1.3295474957972242 -0.03277918770944855 1.4604656304070716 51 91 116 732.960022 282.240021 2
1.3221953139283189 -0.12798823079598823 1.4645126013342986 124 255 50 730.080017 253.440002 2
-0.38580228554697049 0.38958326879818606 0.6305382343789474 55 255 31 146.880005 525.600037 2
-0.45874724838829484 0.31586079248793197 0.6438911679018523 78 106 121 112.320007 476.92804 3
-1.2950464718978307 -0.45989678737369721 3.7528996346512509 216 218 218 252.288025 240.192017 3
-1.8184388849722599 -2.0895798614176084 6.4779023034618186 255 185 203 279.936035 162.432022 3
-1.7306589956079788 -2.0054554003230392 5.9454295669980013 255 184 202 271.296021 158.976013 3
-2.2312286606822251 0.16755012756243781 3.5733392068816601 255 226 220 143.424011 302.400024 3
-1.4423000494523164 0.080992797228600935 3.339441788476595 82 100 119 216.000015 295.488037 3
0.29202028401379732 1.431099229622314 8.2043763187367666 98 117 255 397.440033 352.512024 3
-0.69943986487567411 0.30282105260484365 1.2343393379868457 255 120 139 167.616013 381.888031 3
-0.23863975421976669 0.4534768733811238 1.2917048241839126 69 77 95 312.768036 421.63205 3
-0.41772207131083339 0.33744171006396606 0.59770215361322443 73 92 107 112.320007 504.57605 3
-0.40171078395131055 0.30052987308982115 0.52758170812741212 123 131 255 93.3120117 506.304047 3
-2.5008129203291656 0.52281770204686318 5.6648106104295906 70 255 70 210.816025 324.864044 3
-1.1699249384354178 -1.7078938219264019 5.2520825613587352 255 184 202 295.488037 164.160019 3
-1.3759697896093543 -0.57949160640633968 3.5216391370096356 255 79 93 231.552017 226.368027 3
-2.1000744512331888 -1.124052077480924 3.5254373098476388 214 225 255 153.792007 165.888016 3
-2.1202834704886948 -1.5174459708654291 3.5344007510429023 210 220 255 153.792007 122.688011 3
1.3731504998773163 -0.034127048245904519 1.5241309349727938 48 90 117 732.672058 281.664032 3
1.3221953139283189 -0.12798823079598823 1.4645126013342986 122 255 51 730.944092 254.016022 3
0.31217304000127999 -0.022106596981194236 0.97804396686543837 86 116 152 508.032043 279.936035 3
0.32756956616244426 -0.63505453010922008 1.169697873013287 198 255 140 490.752045 77.7600098 3
-0.39454354081750398 0.30410319880889825 0.68803570137448333 193 255 192 162.432022 457.920044 3
-0.13725349238841744 0.38726755383735889 1.0601618026677047 199 198 255 333.84964 427.161652 4
-0.24478424895043105 0.45883224177623771 1.3483015631364987 86 106 255 313.113647 420.940857 4
-0.40134683979906138 0.30061291183930505 3.2656976489294047 255 144 160 335.923248 325.555237 4
-1.1699249384354178 -1.7078938219264019 5.2520825613587352 184 202 221 296.524841 163.814423 4
-1.4738934857193904 -0.19441369436142392 3.6019027240915622 55 75 94 228.096039 267.494446 4
-2.025170684922065 -1.1234723122425585 3.6125510254395392 224 255 202 170.035217 165.888031 4
-2.1954056026842759 -0.53399087082749019 4.6420031790972125 255 87 103 203.21283 240.537628 4
-2.0682472138116106 -2.1459726590189505 3.534411453236288 255 111 144 159.667221 53.9136086 4
1.3221953139283189 -0.12798823079598823 1.4645126013342986 92 122 255 725.760132 255.052841 4
0.31641076123970391 -0.28184439400180766 1.0313932953758158 222 231 255 505.958466 184.55043 4
0.32119168878300564 -0.024999436608963373 1.0496467015229087 116 152 255 505.958466 279.936035 4
16.815874665124252 -18.59841971963521 32.999643412096184 193 255 114 578.534485 70.5024109 4
-0.38171355835619458 0.41328420353012763 0.86297395809718069 255 179 185 215.654434 468.633667 4
-0.52291351441542666 0.29872302905548676 0.65822349453042628 192 255 191 78.796814 464.48645 4
-0.37679053505884808 0.29335461728219259 0.65861790400483544 255 190 191 163.814423 458.265656 4
-0.36383851701994052 0.42481981986505812 0.80984249363895788 255 169 177 207.360031 489.369659 4
-0.36976749763726113 0.41119186015344789 1.4176952123316329 255 126 132 279.936035 398.131256 4
0.23528389024493479 0.051649965196235229 0.3992870146521591 255 37 71 611.712097 337.996857 4
-1.7306589956079788 -2.0054554003230392 5.9454295669980013 255 187 203 271.641632 159.667221 4
-0.33545756881620248 0.37516920372478929 1.8353675713864543 255 81 93 311.040039 368.271423 5
-0.29171601926718327 0.47130946518467182 2.31953977236555 117 255 171 338.41156 365.783081 5
-1.6837641278161115 0.19973350318274827 3.6484553494392502 94 113 255 201.553955 306.063416 5
-2.0511287982946746 0.11244942176131281 4.008588165875957 239 244 255 189.11235 298.59845 5
-2.0108712593713927 -1.1179764300414887 3.5893061734129765 215 226 255 169.20578 169.20578 5
0.93198117169394001 0.43392485216380722 1.1987928697481811 91 108 135 684.288086 427.991089 5
-2.1019937409188794 -1.8469745871809351 3.582992351884962 255 141 167 159.252502 87.0912094 5
0.32437691050572637 -0.24544856520896796 1.0354196883420019 255 209 219 507.61734 196.577301 5
0.33225421783645226 -0.28181508724832216 1.0232799328053601 255 215 222 507.61734 181.647385 5
-2.0527065536465088 -0.34760324739626336 3.4712768447100464 240 255 234 154.275864 248.832031 5
-1.2122964406102286 -0.43680672601749082 3.550039254477706 255 217 218 251.320358 241.367081 5
-0.38922356231614152 0.41456619214046192 0.8798150357320389 172 177 171 216.483871 465.315918 5
-0.88021792128143073 0.411271116752921 1.2723122735682082 255 144 152 119.439377 415.5495 5
-1.1589644920703184 0.061438632194318887 3.7554002236589747 108 116 129 268.738586 291.133484 5
15.30011700962992 -10.861712699557586 24.478767969399982 255 81 104 619.591797 116.951057 5
-1.8085625301778823 -2.0481678954763916 6.1447596658657924 255 187 203 271.226929 159.252502 5
-0.79312755046997485 0.22583139067127608 2.4260028462581031 123 125 121 256.794678 325.472321 6
-2.1604942222562116 -1.9015231951446552 3.6570743229166252 198 255 139 158.257187 86.5935516 6
-2.2695871074859064 -2.2188012641523991 3.7623979739649744 129 155 191 152.285217 59.7196922 6
0.32588157313492461 -0.24774224496548808 1.0181203141002828 211 220 231 504.631378 197.074982 6
-2.0183369161784572 -1.123191632857258 3.5923265045173283 255 204 213 167.215134 167.215134 6
-0.22033992444495532 0.43345357332886247 0.82309493060924388 22 24 255 277.696564 489.701477 6
-1.5684039020708784 -0.2145135595851935 3.7169166429934588 93 255 56 226.93483 265.752625 6
-2.0527065536465088 -0.34760324739626336 3.4712768447100464 241 255 236 158.257187 250.822708 6
-0.35744740711286127 0.38835480044291748 0.82495216795062332 177 255 186 214.990891 468.799591 6
-0.41653600062946139 0.41608635423713236 1.2379324974407553 208 208 255 253.808685 418.037842 6
-0.25194548060388011 0.46899429330602305 1.4114033563638833 108 114 137 316.514374 418.037842 6
-0.3290205617775257 0.50090235358230495 2.4842796233121156 173 147 255 337.41626 367.276093 6
-1.3518891319209043 0.21663977809380106 2.4458042150510297 167 169 168 164.826355 318.903168 7
-2.7339617749147842 0.1795038392113521 4.2525599206495892 255 230 228 139.74408 300.987244 7
-0.24605947368024239 0.46249246459809235 0.87842410084552136 255 26 38 279.488159 490.895874 7
0.42268558673639312 -0.49937642178412189 1.0486295400182162 176 205 255 537.477234 107.495445 7
-0.92848564529047395 -0.32457526201900683 2.7999602894018336 218 255 218 250.822708 243.656357 7
0.23397687526707855 0.10454789799655076 0.40065338531517436 12 36 52 612.72406 390.566803 7
0.23528401312245717 0.049243959277432608 0.39832784216071815 24 54 76 612.72406 336.819061 7
-0.9480467368006249 -0.029715464721695228 2.1994781855106136 123 255 88 214.990891 286.654541 7
-2.0104247336765111 -0.47955302888116291 4.2825980887173305 83 101 121 204.241348 240.073166 7
-2.0391912036339486 -0.34777161109761501 3.4832372973590391 237 241 255 157.659988 250.822708 7
-0.29390788526250966 -0.43713835398606316 4.1418026205359961 200 255 191 354.734985 250.822708 7
-0.45210810800984547 0.31203320494309938 0.6353196773037727 255 76 105 111.078629 476.563141 7
-0.43049124947500772 0.30446658426146167 0.70748650043992756 197 255 197 146.910446 455.064056 7
-1.5840724974060132 -1.6725063384106809 6.1861778268544834 233 255 224 286.654541 186.325439 7
-0.40570864978270693 0.48556470769707272 3.3954286613570983 154 154 149 336.819061 343.985443 7
-0.33692671782096673 0.35856470046413336 1.505137622307716 152 61 255 293.820892 376.23407 7
