ply
format ascii 1.0
comment Written with hapPLY (https://github.com/nmwsharp/happly)
element vertex 191
property double x
property double y
property double z
property uchar red
property uchar green
property uchar blue
property float ix
property float iy
property uchar octave
end_header
-1.9048389027086396 -0.83670595937964654 3.5759462986268087 230 236 255 181 199 0
-1.122162535186026 0.28134233853375801 1.314670938322102 255 92 107 55 371 0
-1.7025082080516776 -0.92131229709579676 3.2343563866096248 223 231 255 181 178 0
-1.7984155611621824 -1.1017259848904524 3.3771243562457367 204 214 227 180 163 0
-1.965292720607474 -1.0961735670201871 3.3598361946382331 206 216 227 160 163 0
-1.7337778436419788 -1.2237334770069439 3.2723472362884842 209 223 255 181 145 0
-1.7604372435184277 -1.5271983306885901 3.3184565754787005 192 214 255 181 112 0
-1.7978506393382983 -1.7393278519383679 3.3449202277625689 205 255 148 178 88 0
0.84180937410691081 -0.74512360173031933 3.0315858879106741 225 234 255 489 193 0
-0.65794367062002501 0.32070455653609498 0.70177255493190915 38 59 255 25 463 0
-1.4394957652080316 -0.19440159382226901 3.7602603720324845 100 255 59 238 268 0
-1.5524066920233506 -0.21888257433826 2.8770397601680737 255 241 242 175 259 0
-1.7772068701735955 0.10887886550102763 4.2347109518979984 109 128 255 221 298 0
-1.0902926128303041 -0.43453169652350609 3.4562074972226853 222 255 220 262 239 0
0.45387462011067492 -0.011598923963428209 0.84427641842780354 96 110 135 592 283 0
-2.1442397355006202 -0.093645005650149854 3.705825531868415 255 242 243 163.200012 278.400024 1
-1.7961118472018538 -0.25259095224014705 3.3070974275862732 255 241 242 175.200012 259.200012 1
0.23911223938084047 0.43581126266925585 0.83984928818496285 13 255 0 494.400024 489.600006 1
-0.26574897212712512 0.29088756290281903 0.42973564059251712 131 145 255 145.200012 547.200012 1
-2.0208993234685262 0.1735544204511526 3.3590794621241882 129 134 255 153.600006 309.600006 1
-0.23092278209966688 0.41237784552774887 0.71021819533910513 97 255 64 258 511.200012 1
-0.22668370656797121 0.36613404571590147 0.65219526662982186 130 152 255 249.600006 504.000031 1
-0.5238262833128573 -0.073397834368090498 6.4099013525670161 126 255 83 350.400024 282 1
-1.9538278286763009 -1.5390346542842861 3.3289893910678292 195 204 218 160.800003 111.600006 1
-1.4387184022274448 -0.19861272231910695 3.7633500372067354 76 95 255 237.600006 267.600006 1
-2.3884435083793076 -0.2894799499568797 5.4356304830836848 121 141 255 213.600006 267.600006 1
-1.9188919740352413 -1.7806035737789914 3.3586869053857051 171 203 255 165.600006 84 1
0.85029863894306867 -0.74837719474920117 3.1070853322154997 225 234 255 489.600006 193.200012 1
-1.9487710324584446 -2.0632034461416855 3.3595458562204299 255 117 151 159.600006 51.6000023 1
-1.9820406672320212 -2.2975790980447139 3.4421497321606664 255 112 146 163.200012 31.2000008 1
-0.15981230426455073 0.4665343830764353 2.8891058686895641 255 225 226 363.600006 349.200012 1
-0.26101083988635088 0.41438868374966453 1.0345880545929371 211 255 211 286.800018 441.600006 1
-1.7844387229833232 0.28159683101392774 3.052458545008772 198 255 213 162 324 1
-1.7923415330988495 -0.71084417366813213 3.3476285578308222 228 232 237 180 205.200012 1
-1.9560055349009042 -1.0382012034082446 3.345501163379927 255 214 220 159.600006 169.200012 1
-1.8892368672702289 -0.337491789578656 3.2594232320301768 255 238 239 159.600006 249.600006 1
-1.7160825895145204 -1.1533284532310359 3.2526974726042521 210 224 255 181.200012 151.200012 1
0.47003182594183368 -0.22582869821980223 0.84259172745106392 219 232 255 597.600037 186 1
0.42536432952647152 -0.010189723424535911 0.77731762437074803 255 108 123 591.600037 283.200012 1
0.44661509461513604 -0.70605391036695753 3.6584299986281623 239 255 231 430.800018 211.200012 1
0.343266091867515 0.38075992513930662 0.58187121021836874 0 13 255 613.200012 538.800049 1
-0.82271498236787344 0.33774119633061733 1.4957371093594654 255 111 124 171.360001 374.400024 2
-1.8502820614026287 -0.25567770641281096 3.3894222551078754 244 255 241 174.240005 259.200012 2
-1.6764263391238199 -1.2726085570563033 3.3105782885706745 188 204 221 188.640015 141.12001 2
-1.2259894609423418 -0.16546787463851093 3.2402814233879309 76 95 255 237.600006 267.839996 2
-1.2238609654953967 -1.4605688997272697 5.4056013355914976 213 221 232 296.640015 182.880005 2
-0.11821529425322286 0.4700399316773185 2.7808796832902853 213 255 217 370.080017 354.240021 2
0.46701556708007341 -0.22642942304320912 0.84639017215323054 218 231 255 597.600037 185.76001 2
-1.6330848621615002 0.30201025726052888 3.1039370633694547 149 168 255 181.440002 326.880005 2
-1.0123939496963246 -0.64887389666216033 3.5286279379871131 223 223 255 273.600006 218.880005 2
-1.5469544201818151 -0.13193330165763445 1.7367868886698363 152 148 255 41.7600021 259.200012 2
-1.8892368672702289 -0.337491789578656 3.2594232320301768 255 238 239 159.840012 249.12001 2
-1.82793453265817 -1.7023664153598812 3.2173739460247268 144 172 203 164.160004 84.9600067 2
-1.8318857561512241 -2.0259768274639023 3.2295787246769696 149 192 255 165.600006 47.5200005 2
-1.9831640008613722 -1.4930426016169913 3.3917673357468936 255 203 211 159.840012 118.080002 2
0.45225255155409805 -0.011736464092400006 0.83601914954334 255 104 118 591.840027 282.240021 2
0.51819656680185922 -0.82722651201725317 4.3572923220075497 255 227 232 427.680023 214.560013 2
0.83744272942873466 -0.76261839848067947 3.150014482892908 216 224 233 488.160034 192.960007 2
0.43851736630372329 -0.34817007507654929 0.81884613354138991 180 197 218 588.960022 126.720001 2
-0.24497165524285025 0.42859196181662151 0.73489910724024776 93 95 255 257.76001 511.200012 2
0.1780960068670373 0.45031686025047574 1.5832133229360754 188 255 186 426.81604 395.712036 3
0.32911395579741964 -0.59723310726653911 4.0910377074022772 136 189 197 412.992035 231.552017 3
-0.52215832530403139 0.31875815238086741 1.0670829613188233 197 203 194 196.99202 400.896027 3
0.028992999889257076 0.429076311794724 3.7311616585863776 110 130 255 385.344025 331.776031 3
-2.5372065757076876 0.42718847794366244 4.3155158970615641 215 211 199 160.70401 324.864044 3
-0.5459915894431504 0.32878631870843178 0.72985413023188772 13 21 20 96.7680054 463.104034 3
-1.7339767467371572 0.11324618186770372 4.0904506986825746 109 128 255 221.184021 298.944031 3
-1.2715258005330194 -0.66526774655191034 3.4275898258334734 109 130 255 245.376022 214.272018 3
-1.5540879625611557 -1.959692197943248 5.9517969621550897 255 188 205 283.392029 158.976013 3
-1.1913226012739861 -1.8854921429659734 5.6962764193356863 224 255 190 302.400024 160.70401 3
-1.3314450413352548 -0.18385241689472662 3.4720230193918415 62 82 102 236.736023 266.11203 3
-1.0932769584425834 -0.43522955585369583 3.4300822243341043 221 222 222 260.92804 240.192017 3
-0.68558890236451342 -0.1348397529562626 7.5215389013773208 126 255 83 350.784027 279.936035 3
-1.8109788012410859 -1.0533163622233674 3.3713202764771282 216 227 255 177.984024 164.160019 3
-1.6644564950224914 -0.14218838806991399 1.8672177696962353 152 148 255 41.4720039 259.200012 3
-1.9583866132731909 -0.49617638360335592 3.363597082603234 236 238 241 160.70401 231.552017 3
-1.7910263413153493 -1.6368267648379995 3.1220182891548052 151 175 205 160.70401 88.128006 3
0.44934318789958916 -0.18956141970649182 0.83826554601881687 235 255 214 590.976074 202.176025 3
0.45185853043019086 -0.26284438134567439 0.85729321912026268 255 194 211 587.520081 171.072021 3
0.54214785042806235 -0.041764769984070596 0.83489704459256076 194 255 171 630.720032 269.568024 3
0.43976015272094626 -0.013357400132171383 0.7729130342990298 104 125 255 601.344055 281.664032 3
0.54179908173089486 -0.50037737366952229 0.8948812570440432 159 200 255 613.440063 74.3040085 3
0.57297588337824235 -0.38270052360411855 0.85816651602346572 255 189 201 639.360046 117.504013 3
0.3670978951570375 -0.45959129293169365 0.88969504563961421 152 176 207 544.320068 89.8560104 3
-0.23214629988611746 0.3810949888237587 0.95267510007771428 210 255 212 286.848022 440.640045 3
-0.088657756312876312 0.45415632507548442 0.68080613737610696 255 30 50 331.776031 540.864075 3
-0.32505611554874259 0.29191154080867371 0.45569318171286433 255 111 138 107.136009 533.952026 3
-0.29693133933931493 0.31304828592217093 0.47316832365450701 255 99 125 143.424011 540.864075 3
0.56663797780490477 0.032757838411138426 0.83064919216434108 121 150 169 648.000061 300.672028 3
-1.6110317806775121 -2.0047913386647593 5.8541531911645306 223 255 189 278.208038 155.52002 3
-0.089069470103899429 0.44714893298207214 1.1071302362235225 56 64 79 356.659241 445.824066 4
-0.10538812073389203 0.43881683979981517 1.2384781327577659 121 255 90 350.438446 423.014465 4
-1.5647304437604896 0.10977474765618145 3.7494684621925414 109 128 255 221.875229 298.59845 4
-0.14314230429877539 0.42962609160194865 2.7034709947324855 223 223 222 360.806458 350.438446 4
-0.21182171103068859 0.27891563273126474 2.7454176408159192 127 143 162 352.512054 327.628845 4
-0.60877534955914103 0.26958780055490361 0.70909057997089375 255 159 163 55.9872093 429.23526 4
0.17951368201525919 0.46215132522957475 1.8192637053982663 255 178 180 423.014465 385.689667 4
-0.21989565210210005 0.40451721754303144 1.7423233540877212 255 75 86 335.923248 377.395264 4
-1.8935449930349195 0.37294973487396027 3.7545419410064049 131 147 166 192.844833 329.702454 4
-1.2858637243286148 -1.1276840494214939 5.8935342275371809 222 230 237 300.672028 215.654434 4
-1.3222183500982556 -2.097701273434434 6.2668416209048896 224 255 190 302.745636 161.740829 4
-2.0059461921144623 -0.51140439167687179 4.4081848394789498 128 148 255 209.433624 240.537628 4
-1.8149757580395436 -1.0788209933878319 3.3603142004120627 205 215 227 176.256027 163.814423 4
-1.9429278998449062 -1.0997486334924746 3.3506370798729281 216 227 255 161.740829 163.814423 4
-1.9033907119755265 -0.33313956106253695 3.3092383242352659 255 238 240 163.814423 250.90564 4
-1.8870366240421768 -2.0916749513035167 3.3235612506240746 149 191 255 165.888031 45.6192055 4
-1.9220452638066847 -2.0382343845933768 3.3185067598403686 255 117 151 159.667221 51.8400078 4
0.45131873874602224 -0.26603578351558549 0.85125518882666973 194 210 227 588.902466 170.035217 4
0.85084840248443294 -0.7319950184361762 3.0307795003676476 255 220 227 487.296082 196.992035 4
0.53912266779780915 -0.4987494707454222 0.88798557332266603 159 200 255 613.785706 74.6496124 4
0.57923371384835876 -0.38697825618775078 0.87285196360503825 184 199 216 640.742493 116.121613 4
0.4480346623214797 -0.35706747856971466 0.84596912772389854 218 255 179 586.828857 126.489616 4
0.3610062408492426 -0.44865510263560082 0.86418413917799741 176 207 255 545.356873 89.1648102 4
0.3421921041307241 -0.43879774223642748 0.89865778150313957 153 179 209 532.915283 101.606415 4
-0.26462306612959696 0.42869829484675837 0.91983646860768453 255 203 204 271.641632 466.560059 4
-0.35775701918465708 0.3807519804287246 0.93343645244634876 155 255 109 238.464035 441.676849 4
-0.31991152007605472 0.28005875820063114 0.45886837701410499 199 255 198 114.048019 522.547302 4
0.1745424705728067 0.4267028898187335 0.96758081825727094 220 220 218 452.044861 456.192078 4
0.35734491288247172 0.13006049456733879 0.88789281890090943 170 183 255 537.0625 346.29126 4
0.35059652498776384 0.16964359633836756 0.89290448810000167 13 24 255 537.0625 360.806458 4
0.50638163169782302 -0.86172096308975865 4.6032412912019618 255 228 232 427.161652 213.580826 4
-1.1369252041648465 0.27891163427699317 1.3188217110794263 108 124 127 52.2547264 368.271423 5
-1.853437473913039 0.12837311521079381 3.7815911903449431 231 228 235 196.577301 301.086761 5
-1.6932156372606553 0.1212259132425452 3.9605469727054903 109 128 255 221.46051 298.59845 5
-0.23297168841530258 0.40753694676379415 1.8379267660885534 101 255 64 338.41156 378.224701 5
-0.54388662076196592 0.21495533193693003 1.9881349587995043 140 149 164 276.203552 328.458282 5
0.54722251429656044 -0.46944763915761611 0.86093558458998909 173 205 255 629.545044 79.6262512 5
-1.9270507908168844 -1.7993196586815952 3.3834252284453545 202 255 137 166.717468 82.1145706 5
-1.5920977841468167 -1.9638098793856622 5.7836154797625383 223 255 190 278.691895 156.764175 5
-1.8906857083304511 -0.33015062677843832 3.290849430155466 238 239 242 164.229141 248.832031 5
-1.2879146379790507 -0.178505894839495 3.3617578791330729 62 82 102 236.390427 266.250275 5
-1.0632399452674099 -0.41799375803508598 3.3486109857626865 221 222 255 261.273651 241.367081 5
-0.18969215136437545 -0.45801936410262389 4.2885889259572005 255 141 155 363.294769 246.343719 5
0.45371272892407022 -0.22858088777844404 0.84909484939099489 202 217 230 592.220215 184.135712 5
-0.28248830447172302 0.42816574950214403 0.93931990666253729 204 203 255 273.71524 465.315918 5
-0.26294959179699839 0.40548718872338618 1.0382933928892282 213 208 205 288.645172 437.944397 5
-0.094181969663317711 0.45737906194514333 1.1606455165722156 255 76 80 355.829803 440.432709 5
0.1707004028705994 0.45099325513362054 1.5552204469536894 219 255 219 430.479431 398.131256 5
-0.2549983087770471 0.30644881665171075 3.0867756182486401 106 122 255 353.341492 325.969971 5
-0.48043321176305498 0.29492018014025612 0.99438090786907929 255 198 203 199.065628 398.131256 5
26.931721438756107 -20.461733191127923 34.517727259362665 158 197 255 681.799805 59.7196884 5
0.45480335033557573 -0.014655505484369745 0.85024197233119314 87 102 130 592.220215 281.180206 5
-1.8014255617956847 -1.0165034253036263 3.1008035856940732 215 226 255 161.740829 161.740829 5
-1.2768395272707442 -1.9863863244358866 6.0031746582262633 207 224 255 301.086761 161.740829 5
-1.7961253961380534 -1.0706937328204955 3.330132655000769 206 216 227 176.670746 164.229141 5
-0.14793230540570201 0.40594792038118843 2.6410890304404746 223 223 220 364.290131 352.346191 6
-0.2445210772717985 0.47962804832397882 3.1280961979605291 221 255 221 358.318146 349.360199 6
0.46199985766823115 -0.22951407779975364 0.84785642026856678 231 255 204 594.210938 185.131042 6
-1.82286943135556 -1.0819520805427876 3.3606518680887043 206 216 227 176.173096 164.229156 6
-1.984721408900358 -1.113158764818813 3.4087342409631458 216 227 255 161.243164 164.229156 6
-0.2359031178184452 0.29963634973117093 0.51656327217438169 191 255 189 206.032928 513.589355 6
0.57903541372497047 -0.36049953891370212 0.86050994617021681 200 218 255 641.986694 125.411354 6
-1.962231864592018 -1.8428021460075423 3.4237196712456441 138 168 201 164.229156 80.621582 6
0.45943751753488749 -0.26246912281499196 0.84166804203834733 255 199 212 591.224915 167.215134 6
0.45143046846307477 -0.36262207416484959 0.84813954176582618 179 197 217 588.238953 125.411354 6
-0.23632561344468161 0.41356399755420348 0.70749696789877814 95 111 140 256.794678 507.617371 6
0.55114650288819589 -0.4807440154519047 0.87896305535841224 255 141 169 627.056763 80.621582 6
-1.2443120951802964 -0.73116988652141024 3.3895856409478662 100 125 255 241.864746 212.004898 6
-1.130460367817312 -0.16833835178642478 2.9580736970277619 255 67 88 235.892776 265.752625 6
-1.9622459469345279 -0.27746315563379231 4.5047683076410321 122 255 85 214.990891 262.766632 6
-1.5468230217848959 -0.44870782970174528 3.4294619772518113 127 146 255 209.018921 241.864746 6
-1.8888549538771917 -0.33234758526302788 3.3210000328581279 255 239 240 167.215134 250.822708 6
-0.68177819403030115 0.40068702401705869 0.81718142535063043 162 255 178 62.705677 474.771545 6
0.57843963434180279 0.033620461160633761 0.83130686020971711 255 121 148 647.958679 301.584442 6
0.27382829772303952 -0.58278154485049438 4.6828723876660572 158 255 59 406.093903 238.878769 6
-0.27059545124210982 0.41923838666811153 1.0733673332713964 204 201 255 289.640503 438.939728 6
-0.080177168185249226 0.43586624545326336 1.1090550510017163 255 76 80 355.332153 441.92572 6
-0.55020077170422232 0.23908124393728056 1.4763056303560802 168 180 255 241.864746 346.374207 6
-1.0187673535879984 0.3226186298217103 2.0305622183599534 255 122 135 191.103012 346.374207 6
-2.4524509557400553 0.17825099372960393 3.9153303751022861 240 245 255 149.299225 301.584442 6
-0.51948175944862385 0.3123687046319964 1.0629643843507077 197 201 194 200.060959 397.135956 6
-1.4831273406248431 -2.1902542403664684 6.7550650962537704 207 224 255 301.584442 161.243164 6
0.55706284049720711 -0.47656914144790863 0.88417733455305791 255 136 167 623.473572 82.4131775 7
-1.8950178680536331 -1.0606618132085919 3.2934456371934293 215 226 255 161.243179 161.243179 7
-1.1262518096477141 -0.40849800448938534 3.4850200774876257 221 222 255 261.572266 243.656357 7
-1.7295116227073883 -0.48244772727893492 3.8056743955516437 255 192 198 207.824539 240.073166 7
-0.241878870440976 0.41407731334826409 0.71935331452882778 114 143 255 257.989075 505.228607 7
0.18059939986471685 0.45371305138480317 1.1640266157739065 219 220 218 444.314514 440.731354 7
0.028630584891617517 0.42399688683339742 1.0021217309175543 216 255 215 394.149963 451.480896 7
-1.9644422534977277 0.34105573295504538 2.5143082521391436 155 255 122 82.4131775 340.402252 7
-0.38878117336947948 -0.02404005999909227 4.0090974667204407 255 82 104 347.568604 286.654541 7
-0.76951640992175152 -0.0056310258546149738 6.263744182499507 81 103 124 336.819061 286.654541 7
-1.2183290142363092 -0.70346082504047813 3.3101481547626102 82 102 127 240.073166 211.407715 7
-0.27597787493121184 0.42021869732377393 1.0863466381372948 210 255 214 286.654541 437.148163 7
-0.41098152924293707 0.35184494181346115 1.1154652285957332 255 215 216 243.656357 408.482697 7
-0.15057813530856023 0.47005433800326246 2.1329137633377515 216 208 255 361.901337 376.23407 7
-0.23077908974817474 0.3891551428687785 1.4670088167445705 95 255 152 322.486359 386.983612 7
-0.094181969663317711 0.45737906194514333 1.1606455165722156 98 255 75 354.734985 440.731354 7
-0.67365682899343726 0.28218531719313833 1.7911616247822981 143 145 162 240.073166 347.568604 7
-1.0347808905676921 0.33252742474518932 3.3457814887897901 191 200 255 265.155426 333.235901 7
0.6214770000369142 -0.39783221800652346 0.94079761535469575 200 218 255 641.389526 125.411354 7
