ply
format ascii 1.0
comment Written with hapPLY (https://github.com/nmwsharp/happly)
element vertex 190
property double x
property double y
property double z
property uchar red
property uchar green
property uchar blue
property float ix
property float iy
property uchar octave
end_header
-1.0576617676290065 0.28942944993384784 1.2310691428397706 88 102 103 52 379 0
-0.60495625292335431 0.40925678229390455 0.75111588503508298 165 160 255 73 496 0
-1.2523425196726357 -0.17145602819442668 3.3704355994628932 79 101 255 241 268 0
-1.710832916187345 -0.62981222114517477 3.2516812561681236 255 227 232 183 214 0
-1.7400887544777066 -0.79031077752167489 3.3109438893132266 227 231 237 184 196 0
-1.9699058355736891 -0.89057904470611549 3.3825469292698451 228 231 236 160 187 0
-1.6469611227409979 -1.1503575395547956 3.1631533258416713 200 211 225 184 148 0
-1.0220246729184321 -0.42922193852963175 3.3696187523519807 222 224 224 268 238 0
-0.21705157614643578 0.32100404725035869 0.88799993994500825 214 215 213 292 427 0
-0.16319371458869614 0.41222764352467084 0.59810761456114503 119 131 154 280 554 0
-1.6694751119281301 -0.76120384846569289 3.58747114443256 228 235 255 205 205 0
-0.43740868425898016 -0.056015220444274927 6.150241314077296 255 88 110 355 283 0
-1.8736268381899626 -1.0841250950924461 3.2386443869487529 255 206 216 163 160 0
-1.8807874167286682 -2.0632933345731321 3.2725119400442209 255 118 154 163 46 0
0.55117714872267365 -0.790330342616824 3.9717767878798549 255 226 232 439 211 0
0.54161824939457903 -0.36494588526908905 0.78122498374801119 167 189 214 652 109 0
-1.6900659591952119 -1.5241345133694861 3.2278622994858708 255 172 191 183.600006 106.800003 1
-1.8724905998355101 -1.3837626113380772 3.243557108731431 211 216 226 160.800003 123.600006 1
-1.64899077660955 -0.85124270083233289 3.1675773618740539 255 225 229 183.600006 187.200012 1
-0.83289756272756588 0.23406437751160378 0.96769355605759189 255 71 92 55.2000008 381.600006 1
0.42904761849273587 0.24406675855583598 0.77491779442557829 13 22 255 597.600037 409.200012 1
-0.68026647993372102 0.45146163801116224 0.84073533184950033 178 175 255 73.2000046 494.400024 1
-0.1517565994203709 0.4581715181734084 1.0610647694960766 255 216 217 331.200012 452.400024 1
0.40662714102224407 -0.57872182216704238 4.0334970726383652 234 238 255 421.200012 234.000015 1
-1.6333707544019398 -0.918496488574429 3.1440081719766249 232 255 217 186 175.200012 1
-1.726247845605378 -0.24746219375466927 3.2141160540406628 242 245 255 177.600006 259.200012 1
0.51686413435037071 -0.21451881617046992 0.72891108839820107 255 198 214 655.200012 176.400009 1
-0.68672309630839345 0.36914272627019329 0.85108449334675695 186 187 255 73.2000046 453.600006 1
-1.6298008707902341 0.1111256083999152 3.9788390668534879 113 132 255 225.600006 297.600006 1
-1.1439601185620467 -0.71697011879797068 3.2282676497145824 255 83 103 247.200012 202.800003 1
-1.5624301485848533 -2.0167202852236779 5.8201410690212771 201 212 224 280.800018 154.800003 1
-1.3457501841572093 -1.6193736440418267 5.9718820619802644 214 223 233 300 183.600006 1
-1.6487022549936712 -0.38960005334067072 3.1636039009279324 255 237 239 183.600006 241.200012 1
-1.8534685661064985 -1.7807826701804315 3.2756285844645312 139 169 203 168 78 1
-1.7621165031814163 -2.0252856417636416 3.1411559240497833 152 194 255 169.200012 42 1
0.52697282480171204 -0.18247938013241338 0.7510359583955577 221 227 236 652.800049 194.400009 1
0.53023842093381901 -0.0036994957946884371 0.74753522758905455 181 255 139 654 285.600006 1
0.50339306749192569 -0.0026020306968603385 0.68807691926202463 180 255 137 662.400024 285.600006 1
0.44665684869299871 -0.45594605211432804 0.8042204850718746 202 255 121 598.800049 69.6000061 1
-0.73837468922874661 0.32235027862330906 1.4260357947397293 131 145 50 184.320007 375.840027 2
-0.74689493578455823 0.34346161631422373 1.398807283990013 90 13 255 177.12001 383.040009 2
-1.1630322670131745 -1.4622156012918865 5.3403713517912053 234 255 218 298.080017 184.320007 2
-1.325600948089861 -2.2201607327672219 6.5412180158908884 225 255 190 306.720001 156.960007 2
-1.100794234756834 0.083573495395415476 2.8556347337062804 85 104 255 237.600006 296.640015 2
-1.8865990744501175 -0.94805397897570065 3.253930950361648 255 220 226 159.840012 175.680008 2
-1.7198956734480992 -1.0355285399505223 3.2541912496343137 230 255 208 182.880005 165.600006 2
-1.6951443113097406 -1.0838349493941435 3.237615303623242 215 227 255 181.440002 159.840012 2
0.39997940214515226 0.48083840455123567 0.78440431219441997 11 255 0 578.880005 522.720032 2
-1.5693872046855848 0.26395392219763925 2.7315250292264142 217 205 255 165.600006 325.440002 2
-0.045633957009585391 0.47651479705160071 2.6766665867639201 215 255 217 378.720001 357.120026 2
-1.519433084151272 -1.983614957056834 5.976264995274855 226 255 191 286.559998 159.840012 2
-1.6783703350086072 -0.29952081751331172 2.9323161078111704 243 255 239 162.720001 249.12001 2
-1.8646782011736684 -1.7239342994468876 3.2282118606455805 205 255 147 162.720001 82.0800018 2
-1.8172037071866995 -2.0818678222505405 3.2346231862659129 115 151 194 168.480011 41.7600021 2
-1.7915088397536536 -1.4811456688176694 3.2782623984715458 218 255 185 174.240005 115.200005 2
0.52574020194961635 -0.18220165155254187 0.75160271881276186 221 227 236 652.320007 194.400009 2
0.53023842093381901 -0.0036994957946884371 0.74753522758905455 156 180 255 653.76001 285.120026 2
0.51798816500672606 -0.69809363853095019 3.5649168526647115 232 239 255 437.76001 213.12001 2
0.39691958670232141 -0.59527095341158565 4.0210068370949736 203 227 231 420.480011 233.280014 2
0.53076581552532376 -0.35464049444545792 0.75940082570078671 214 255 167 650.880005 109.440002 2
-0.18675769438389644 0.42108474655688244 0.94369847334588397 218 218 217 308.160004 459.360016 2
-0.4959758890406829 0.31277598473554558 0.61304578200703275 167 165 255 73.4400024 483.840027 2
0.44133144844301886 0.45169823159450473 0.78038922523846055 255 0 0 603.360046 509.76001 2
0.31513266791992223 0.4427304051227654 0.74729467013285023 255 0 0 547.200012 516.960022 2
0.61570667717457794 0.044695625122891935 0.70640985613815199 134 158 255 717.120056 309.600006 2
-1.2564664426407948 -0.17710597924654531 3.3684566714235595 65 85 106 240.192017 266.11203 3
-2.3449961302079023 -0.28632222864906487 5.3867973001118212 99 117 137 216.000015 266.11203 3
0.51621216724668106 0.39773033471752473 0.77421723963522648 0 4 255 641.088074 485.568054 3
-0.13995514262262976 0.28795602238172213 2.653491331465379 128 145 255 361.152039 326.592041 3
-1.7617873941944553 0.23417392803330792 3.9272679701563238 116 255 86 214.272018 311.040039 3
-1.6121809514669003 0.11442179723401699 3.8898299442333553 99 114 132 224.640015 297.216034 3
-1.624347239365004 0.31673510251483245 3.1092284032928457 146 158 175 184.896011 328.320038 3
-0.028647478759691092 0.49835169048195671 2.0326375700665409 209 255 213 378.432037 383.616028 3
-1.1652321530751268 -0.7282773779840146 3.2819575651208637 255 83 103 247.104019 202.176025 3
-1.4216236180297637 -1.6894887100856335 6.1317300930776399 223 233 255 297.216034 183.168015 3
-1.0277278049260063 -0.42688674314522213 3.3689870341957415 224 255 222 266.11203 238.46402 3
-0.61773034191772935 -0.12910205806743624 7.430363426193539 129 255 86 354.240021 283.392029 3
-1.6591212019468968 -0.14339515476621797 1.8441150757190359 255 149 153 39.7440033 259.200012 3
-1.6313426583915507 -0.21032821067351257 3.2631584259721782 255 242 244 191.808014 264.384033 3
-1.8251043283542896 -0.3327326011273517 3.174376212074324 243 255 239 162.432022 248.832031 3
-1.1532374005864723 -1.9159192434749501 5.7126472596022833 208 225 255 305.856018 157.248016 3
-1.8408026857590207 -1.7873810280212792 3.2684105959236609 255 140 169 167.616013 77.7600098 3
-1.6173464085806786 -1.2745794145707243 3.2376020793176834 255 188 204 191.808014 136.512009 3
0.60284912627101483 -0.84552216781815759 4.4107899794208505 232 238 255 437.184052 212.544022 3
0.91624140587635616 -0.77274196293244701 3.0678724081620787 226 235 255 501.120056 193.536011 3
0.4392469079393696 -0.44259570034514961 0.77523231385878444 255 121 160 599.616028 69.1200104 3
0.53117897218288024 -0.62291877317256528 0.93890294323244672 255 103 146 603.072083 32.8320045 3
0.65607892658209765 -0.37890375031780998 0.78093849760927703 187 199 217 708.480042 98.4960098 3
0.26189757863352758 0.44643864013935641 0.9915013152617338 220 255 222 482.112061 459.648041 3
0.64475853335508337 0.040466598119900429 0.74140601683759666 134 158 255 717.120056 309.312042 3
0.42658069651772446 0.17698375472738415 0.80005815481482156 73 255 56 590.976074 373.248047 3
-1.4239292859155426 0.25935629179061448 2.9996533783335297 167 172 255 201.139221 323.481659 4
-1.4897364939022468 0.11562399037562551 3.6415094768558083 255 101 116 223.948837 298.59845 4
-0.50517247264737786 0.42397254696983278 1.6932649295747653 111 119 255 269.568024 383.616058 4
-1.223981320023511 -2.0560266442181669 6.0640316025136398 191 208 225 304.819244 157.593628 4
0.61555352638813443 -0.03391205185608509 0.75090392579129817 87 255 56 698.803284 271.641632 4
0.52521449614728799 -0.1831660297567595 0.74462276881866463 227 236 255 653.184082 194.918427 4
0.52725884580454885 -0.2182094045360562 0.75157647819716189 215 230 255 653.184082 178.32962 4
-1.5474326296929521 -0.19735629092022966 3.1383481508598257 242 243 245 192.844833 263.347229 4
-1.165342852042742 -0.72452296632495838 3.2828239698256594 126 255 77 246.758438 203.21283 4
-0.28013060183316818 0.31332953538640812 0.86994773490195398 224 222 255 261.273651 427.161652 4
0.55393584902063897 0.088202640137734378 0.75571412247800795 106 126 255 669.772888 333.84964 4
0.65706713192867972 0.040649278823265945 0.7428769752923059 255 103 130 719.539307 308.966431 4
-1.2472846097914574 -1.1372508244159234 5.9497927198350853 224 231 238 300.672028 213.580826 4
-1.8778184550912167 -1.7346895400681901 3.2560784240319736 174 205 255 161.740829 82.9440155 4
-1.833633715370441 -2.1029745078691868 3.2587294488451919 151 194 255 165.888031 39.398407 4
-1.853239306842311 -2.037701138797805 3.2306228865198872 255 118 153 163.814423 45.6192055 4
-0.18964780038570539 0.41832916540531884 0.95422318385000771 215 216 215 308.966431 456.192078 4
-0.061034387257582479 0.47288928254495199 1.1419520227904398 115 255 85 362.880066 447.897675 4
-1.7049686983654082 -0.72913132752222931 3.3893483733530325 231 234 239 192.844833 205.286423 4
-1.7323349750699415 -1.0695586432903339 3.2510646955171252 205 216 228 180.403229 161.740829 4
-1.1992354001986563 -0.16592153209024846 3.2392048638218838 111 255 75 238.464035 265.420837 4
-1.0005961588451306 -0.42135404616188415 3.296300983431097 224 224 255 265.420837 238.464035 4
-1.9396821188228075 -0.5075415012631852 4.3194199187792499 255 116 129 211.507233 240.537628 4
0.02637652958243919 0.44364994492038529 0.94491522688662921 110 115 255 393.98407 470.707275 4
0.39986470837829524 0.47708590090616948 0.77910535829294369 11 255 0 578.534485 522.547302 4
0.43003450973101609 -0.68563203630970371 4.3509851475786006 223 255 157 418.867249 230.169632 4
-0.66365554060451792 0.4412327766096702 0.78218987086868808 168 158 153 60.134407 505.958466 4
-0.16328305992360703 0.39719859362651527 1.3795782204839635 195 201 168 340.070435 398.131256 4
-1.6929157764664455 0.42792674959421279 4.1941739602863031 45 255 41 230.169632 329.702454 4
-1.8832943217497609 -1.1008053375678577 3.2730465786154053 255 206 216 163.814423 159.667221 4
-1.4679622126561553 -0.12703056960076392 1.6378061388170218 255 149 153 39.398407 259.200043 4
-1.3304089566226227 0.092908203509813186 3.2631213096550744 255 101 116 223.948837 298.59845 5
-0.6475321946104009 0.31964200643252738 1.5307285047153685 198 255 193 226.437149 370.759735 5
-1.5433948834649618 -1.9757541328237163 5.7481934713100511 208 224 255 281.180206 156.764175 5
-1.8237282833988067 -0.32635156952266947 3.2017740159517056 239 240 243 164.229141 248.832031 5
0.53001506183909042 -0.22046636372115946 0.75586372533408919 230 255 198 654.428223 176.670746 5
0.23932176096690383 0.4181139266006183 0.92851298236010171 222 255 223 482.734161 457.850952 5
-0.014439089004901762 0.45895812851399043 1.0468361268624353 91 93 111 380.713013 460.339264 5
-0.59526627975972835 0.29629590086819269 0.68590264748257002 163 168 173 52.2547264 450.385986 5
-0.71276847112591746 0.2998600349871488 0.82767186905729839 196 197 197 52.2547264 427.991089 5
0.25332198247033411 0.46897809959627534 1.7229489136614995 201 255 190 442.921021 393.154602 5
0.35805369454173919 0.38635143303439201 0.77564380364819185 8 11 19 564.848694 480.245819 5
-1.034982889288564 0.27877647850742698 1.1969723804386161 162 158 255 49.766407 378.224701 5
-0.25814078935339091 0.094011817913827511 3.111593993514687 98 255 49 350.85318 303.575073 5
-0.14553813259967163 0.41149687432480203 1.6467759746855206 90 110 255 353.341492 383.201324 5
0.92211441426185958 -0.76181910576711176 3.1018994325197284 236 255 218 502.640717 196.577301 5
-1.8832943217497609 -1.1008053375678577 3.2730465786154053 206 216 228 164.229141 159.252502 5
-1.1532374005864723 -1.9159192434749501 5.7126472596022833 226 255 192 306.063416 159.252502 5
0.43153467846344662 0.068838481608768487 0.80190993802408084 255 116 127 591.224915 319.500336 6
-0.0020150383800823235 0.45199875975521231 0.92715195206496825 255 43 58 379.220032 477.757538 6
0.92756676816615968 -0.77967639648640807 3.2125315288591447 226 235 255 501.645416 194.088989 6
-1.7796876595892641 -0.24045727873320216 3.5266150189653773 255 241 242 191.103012 259.78067 6
-1.470605154663903 -0.44140800269861585 3.3280806399398517 106 120 140 212.004898 241.864746 6
0.43293211827735334 0.17892186907788557 0.80537142681947538 255 59 62 591.224915 373.248077 6
0.25622632222430619 0.43881261267932659 0.99803448963902475 221 221 220 480.7435 459.841614 6
0.41714564161259415 0.24011610963843011 0.76147526832678714 22 255 13 594.210938 409.079895 6
0.64275104498458524 -0.41988995593903145 0.78529548679646388 210 255 160 698.720398 80.621582 6
0.53169982453884901 -0.35607284576462805 0.77006300314745402 214 255 167 650.944641 107.495445 6
0.53571637461770427 -0.25442234721443585 0.74805615061314579 191 207 225 656.916626 155.271194 6
-1.0165153625143972 -0.55967568881161822 3.2708539180983087 227 255 225 262.766632 223.948837 6
-1.1482319174453619 -0.6985216711141673 3.2199086664540388 255 86 103 247.836716 206.032928 6
-1.4881580189878134 -1.7554935304305115 6.3738787496895695 233 255 212 298.59845 182.145065 6
-0.42112738283839435 0.31006509347750011 0.93129036622632366 203 196 255 209.018921 409.079895 6
-1.0771832634826244 0.58294175009608384 1.8978743439272727 207 206 206 164.229156 409.079895 6
-1.2230233294239676 -0.17356295847037254 3.2796483826327072 111 255 75 238.878769 265.752625 6
-0.97538091851219866 -0.40609063989735816 3.2244008991208943 224 224 255 265.752625 241.864746 6
0.40781062794802458 0.25216374895238292 1.2078829169436198 85 86 255 513.589355 367.276093 6
-0.3088038825521906 0.0053140437389484138 3.9639229791420849 86 107 128 352.346191 286.65451 6
-0.008065904200379892 0.44593960821206236 1.0263848282811769 255 83 85 379.220032 459.841614 6
-0.0504873813818707 0.48140681179722539 1.317953716583107 110 130 255 373.248077 432.967773 6
-0.20478092675645643 0.43271813558273631 0.84104947200050972 206 191 255 289.640503 486.715485 6
-0.6207373779451153 0.41438646813985297 0.74026094947836651 255 174 169 59.7196922 501.645416 6
1.1237597062507247 -0.25862517568283616 3.0586824313787275 255 110 142 531.505249 253.808685 6
-0.66522165244905818 0.2253084084016154 1.0020887010831652 165 183 154 128.397339 373.248077 6
-1.5433143937831817 0.1284221996117092 3.7063259283742322 255 101 116 223.948837 298.59845 6
0.47040903859445882 0.36315341006156415 0.76881646380435154 149 166 255 621.084778 468.799591 6
-0.28073963370479182 0.18079756203709541 3.5052917920844795 39 64 88 352.346191 304.570435 6
-0.94568712860012694 0.32946676597083602 1.9354266556437461 128 141 161 200.060959 349.360199 6
-0.14748713785129786 0.4040740172847852 1.6963318234675802 79 90 108 352.346191 382.206024 6
-0.59236967469667201 0.4813808385772429 1.9456176871419268 104 112 255 265.752625 385.192017 6
-0.60074780372732151 0.28913483964951453 1.6996470176041711 205 208 255 253.808685 349.360199 6
0.53066566181780361 -0.0068817726055599091 0.75539033174951298 139 161 184 656.916626 286.65451 6
-1.7323349750699415 -1.0695586432903339 3.2510646955171252 255 206 216 179.159073 161.243164 6
-1.8589984236882051 -1.8188745152015091 3.2877994126385595 255 139 169 167.215134 74.6496124 6
-1.9120762133205189 0.34807221606875804 2.4397930683126989 157 255 127 82.4131775 343.985443 7
-0.33803006936765922 0.36013620418950043 1.0273741657856386 224 221 255 261.572266 426.398621 7
-0.70940937107844948 -0.0015764400791044575 6.1863578229554621 85 107 127 340.402252 286.654541 7
-1.0978877069959707 -0.16739668661760773 2.9467547085708921 76 99 121 236.48999 265.155426 7
-1.0566154051035039 -0.40285771897900102 3.3944806619385322 224 224 255 265.155426 243.656357 7
-0.20034540921521637 0.42865311989661453 0.99284318425913143 214 215 214 308.153625 455.064056 7
0.5108482916605267 -0.17143170023769913 1.6956984100411674 171 255 123 498.062256 254.405899 7
-0.44891043070232906 0.32115395788299034 0.97841317214324386 255 198 205 207.824539 408.482697 7
-0.074305970943734589 0.44741498269025709 2.5628880921244934 222 220 255 369.067719 354.734985 7
-2.3924907819966794 0.18279160963598701 3.8321823698086224 245 255 237 150.493622 300.987244 7
-0.96338637987185782 0.3397563834492367 3.249231599611325 139 148 162 272.321808 333.235901 7
-0.022314900392872428 0.47702426485847182 0.98313193083112771 255 45 58 379.817261 480.146332 7
0.53839103568797286 -0.22111728942629622 0.75444691425170829 255 198 214 655.722229 175.575897 7
-1.7531754650902518 -1.0784175022771765 3.2697947839214878 255 206 216 179.159088 161.243179 7
-1.3923835450332391 -2.1653059359837341 6.6125996411481669 193 210 226 304.570435 161.243179 7
