ply
format ascii 1.0
comment Written with hapPLY (https://github.com/nmwsharp/happly)
element vertex 76
property double x
property double y
property double z
property uchar red
property uchar green
property uchar blue
property float ix
property float iy
property uchar octave
end_header
-0.30511637934177704 -0.29617727819558937 0.45951450538451688 123 255 0 130 40 0
-0.29720047908286995 0.21128123183211667 0.43606294030962545 255 26 84 123.600006 471.600006 1
0.017028688197688435 0.27459026706909107 1.4061227859207905 245 255 240 390.000031 361.200012 1
0.16943984955032088 0.17199231304699836 1.6059165441177461 255 245 249 423.600006 331.200012 1
-0.33089793878117346 0.088758669856821903 0.51586370988263575 0 96 119 136.800003 355.200012 1
-0.27135833991884883 -0.072656590632347307 0.39597865535419263 102 147 160 120.000008 219.600006 1
0.084689841818397005 0.20499363038663898 2.0097128512406748 244 248 252 400.320007 326.880005 2
0.73332188984806157 0.5928644316265701 1.1777663465384469 255 127 153 623.52002 483.840027 2
0.024825052582958973 0.73411830882951123 1.1800854673392687 13 26 255 393.120026 528.480042 2
-0.21661335250963232 0.74425858613780616 1.3291783030734567 255 168 169 319.680023 502.560028 2
-0.36931888382297373 0.75303162624883768 2.4739557945401351 185 190 192 328.320007 406.080017 2
-0.67460782291136301 0.78533779772706125 2.7873124941092122 192 190 255 289.440002 396.000031 2
0.58310064057534539 -0.32693117461356147 0.65783020315211349 203 223 255 725.760071 95.0400085 3
0.44047967796328047 0.13369540173204375 0.48554979962210165 210 210 206 732.672058 393.984039 3
0.49427306491451239 0.63467277816031886 1.3246098755256401 49 73 90 528.768066 470.016052 3
-0.27584305033606649 0.85008994435018281 2.5130702289184761 138 255 163 338.688019 418.176025 3
-0.19670907937286453 0.76083759879038348 2.8630330683950724 255 76 79 359.424042 388.800049 3
0.09852248691799792 0.2143860966834733 2.1750483856104239 244 248 252 400.896027 326.592041 3
0.018151328799533406 0.28713731203436688 1.5412223523639295 240 240 245 388.800049 359.424042 3
-0.34992294271585145 0.77950244467377572 1.7995322259242368 154 255 132 306.892853 454.118469 4
0.41719507713496062 -0.015847677573271768 0.47206445228886817 255 248 248 723.686523 273.71524 4
0.49187661263975047 0.64076790039347586 1.3455940536711406 89 255 42 526.694458 472.780853 4
0.56834905165162541 0.73502548311215532 1.1932232783187899 109 122 142 568.166504 526.694458 4
0.022876360709288335 0.71947002088892609 1.157692193787021 19 35 255 389.836853 528.768066 4
-0.25707952624112673 0.77490434642685568 2.2723721245893795 163 162 255 337.996857 418.867249 4
-0.18798971016192167 0.7381439270310215 2.7549625105319411 86 255 68 358.732849 389.836853 4
-0.65343478803126409 0.75314256230414744 2.7272503035707274 180 255 187 290.304047 396.057648 4
0.461647097939347 -0.2652900725745001 0.51502444911410183 212 226 255 725.760132 89.1648102 4
-0.81995815312775955 0.84568112173899301 2.5492000578516123 255 227 227 259.200043 418.867249 4
0.38388048973111166 0.74707535320875729 1.4183379506950198 152 169 255 489.369659 491.443268 4
0.085880877633975894 0.19323477875651274 1.8882557380113605 244 248 252 400.204865 325.555237 4
-0.58227038470448411 0.66798930679812574 2.3568344519734126 255 189 189 291.133484 393.154602 5
0.18464116746183623 0.26531619238779647 1.3733498699084015 240 240 246 432.967743 358.318115 5
0.42338721133367074 0.75079747622903203 1.5204291165498622 158 171 186 492.687439 475.269196 5
0.19079352893449131 0.21066015335030019 2.0078106156690776 255 244 248 423.014465 328.458282 5
-0.22600989488387269 0.75491803476357222 1.3649353792727501 171 255 221 318.505005 502.640717 5
0.06758249435359942 0.51671142509574175 1.6517460529046986 110 99 98 400.619568 408.084534 5
-0.36161815669101127 0.74064400467264568 1.9067095374472443 255 215 216 311.040039 432.967743 5
-0.25904235728871727 0.77698994975771951 2.2832696453385193 111 113 115 340.899902 418.037811 5
0.0905606444393523 0.70982021174898879 1.1873989530652356 77 255 73 410.572845 517.570618 5
-0.49836592581473482 0.7536720652520863 2.8060013847558931 164 160 255 313.528351 388.177979 5
0.58736290903154575 0.64614188895464986 1.6128501830613899 91 255 47 522.547302 440.432709 5
19.948740321769407 -30.717230009069851 57.997319996662654 175 197 220 520.05896 82.1145706 5
0.012120608924281573 0.26704586914291317 1.4285904332025057 240 240 245 388.177979 358.318146 6
0.97628112767356712 0.69058162672458745 1.797982960552087 135 255 93 594.210938 429.981781 6
-0.22425838386754959 0.74265995190524858 1.3346114399425577 215 215 211 316.514374 504.631378 6
0.21991945555779591 0.72829015908227102 1.2181724667644929 146 166 255 453.869659 516.575317 6
0.10068690836320382 0.22187721214728506 2.1168371802336017 244 248 252 400.121918 325.472321 6
0.51477377777331101 0.60716945880939588 1.9153235116583414 171 184 255 489.701477 409.079895 6
-0.26636693799356426 0.78645462243417286 2.1701065249586318 188 255 230 334.430267 426.995789 6
-0.3555349565633823 0.73713970737967194 1.8934567218816607 208 255 197 310.542389 435.953735 6
-0.33986059712158845 0.74981332918303356 2.4665741959664409 185 190 192 328.458313 406.093903 6
-0.5383972880936847 0.69977063249301552 2.5201166175711602 157 160 158 304.570435 394.149963 6
0.88043639927834405 0.75815623013741584 2.5780785820252099 145 163 178 516.575317 400.121918 6
-0.1811920924059196 0.73352740829337204 2.7246158360716493 85 255 61 358.318146 391.163971 6
0.35331571860770539 0.6790509676919656 1.4957373613710745 191 255 184 474.771545 465.813599 6
0.18464116746183623 0.26531619238779647 1.3733498699084015 240 245 255 429.981781 358.318146 6
28.22387684506748 -27.714250848996478 70.598098417892288 231 255 207 534.491211 134.369308 6
0.34725369671388728 0.67015899413298574 1.4763527124650109 192 196 200 476.563141 469.39679 7
-0.40031710533388498 0.60721840315809694 2.1491018567832016 255 206 207 315.319977 390.566803 7
1.8050046568727733 1.0556498265482244 4.5573713144346382 193 255 156 530.310852 379.817261 7
0.38628885791258805 0.56548569999287146 1.3990744362848329 184 255 161 494.479065 440.731354 7
-0.34063133005848645 -0.16215451767218281 0.4417920074365469 165 186 255 85.9963608 150.493622 7
-0.34417012209262632 -0.10753763108064529 0.44287332364335708 171 192 255 85.9963608 197.074982 7
0.32727986914789264 0.31027916088506768 1.3478592134474017 162 162 255 469.39679 376.23407 7
-0.18236876650829492 0.70960560478342583 2.1973473009047542 255 80 77 343.985443 412.065887 7
-0.49299756962618568 0.92144815359776078 2.6172455301641016 255 164 175 311.736786 426.398621 7
-0.33839602993064588 0.48960620804875665 1.5710351141179446 138 164 175 304.570435 412.065887 7
0.029742044510383758 0.53315907762633175 1.0228965489922874 143 255 139 394.149963 480.146332 7
-0.45864333138267677 0.49540707688172692 1.658172710409219 255 199 201 283.07135 397.733154 7
-0.36801880031973422 0.78158588938038132 1.8572110003666946 136 138 155 304.570435 451.480896 7
-0.3230087722654833 0.74954265637936368 1.3465571016975328 213 207 255 293.820892 501.645416 7
-0.23642466388994299 0.77414965279608472 1.4045407154783156 255 222 223 315.319977 505.228607 7
-0.33337939324347277 0.74543694862759002 1.5669649488698489 226 227 224 304.570435 476.563141 7
-0.17354263390487734 0.67403112161353818 2.411281364495272 85 255 64 358.318176 390.566803 7
0.36168708810591088 0.67681867872052059 1.2814659660006322 173 255 133 490.895874 494.479065 7
