ply
format ascii 1.0
comment Written with hapPLY (https://github.com/nmwsharp/happly)
element vertex 146
property double x
property double y
property double z
property uchar red
property uchar green
property uchar blue
property float ix
property float iy
property uchar octave
end_header
1.3695152075193198 -0.05996866970317466 1.8185929313457274 142 175 255 673 274 0
0.79458058696360923 -0.6640517378840658 3.5394626380486462 255 236 239 471.600006 213.600006 1
0.53235606339396058 -0.65137908375734965 3.7169795633591471 255 117 145 439.200012 219.600006 1
-0.53385937559277163 0.48431159352008835 0.87210599715044035 141 155 176 148.800003 501.600006 1
-0.10047450845404127 0.51817854285640974 1.3804466320660951 255 21 47 355.200012 429.600006 1
-0.50984684305982109 -0.079878884234557579 1.3639582142923103 93 105 130 240.000015 266.400024 1
-0.4440209631910137 -0.38004027622437786 1.070234503921891 216 230 255 225.600006 153.600006 1
-0.50699248770280292 -0.50674854947901482 1.2353726566436123 202 223 255 225.600006 130.800003 1
1.2888592775994492 -0.24879674773477811 1.7921415498965407 157 197 255 657.600037 235.200012 1
-0.94729473648845719 0.22704383791009852 1.983364954932135 136 148 255 201.600006 331.200012 1
-0.44879892890771789 0.094284702151410826 7.8298135352713896 255 92 114 363.600006 294 1
1.131054395726758 -0.46513248118504402 2.6070813162027378 255 230 236 551.52002 220.320007 2
-0.99094499250070145 -0.066554267493989294 1.1889731740389289 255 86 108 63.3600006 266.400024 2
1.4095329668817871 -0.064449456328032451 1.8812243893248244 109 142 180 672.480042 273.600006 2
-0.92175660201997456 0.34616392944487895 1.1736978781272214 10 255 13 82.0800018 401.76001 2
-1.0302578360176735 -0.20265124249427258 1.2372619951945047 22 38 255 61.920002 226.080002 2
-0.94684134022711808 -0.77105893826933081 1.1557750229827839 97 255 61 70.5600052 30.2400017 2
1.3899098544253796 -0.27049232108391319 1.9801909368113488 118 157 197 656.640015 234.720016 2
-0.95590093722072789 0.16002227025772076 1.1622676825135509 36 56 255 69.1200027 342.720001 2
-1.0300425500571984 0.24204739450843427 2.1913846521391731 136 148 255 201.600006 331.200012 2
-0.99339266530128612 0.33709354161994687 1.1195780923030427 15 25 37 44.9280052 402.624023 3
1.1585784424642884 0.56744709310141961 1.9710501360612236 255 78 70 611.712036 399.16803 3
-1.0362548824187128 0.13842955031801885 1.1786112561665929 112 255 76 46.6560059 333.504028 3
-0.91398663993522833 0.47807196402727092 1.3549103735958306 60 60 57 124.416016 421.63205 3
1.0539070062494906 -0.42681526592548724 2.3864640490175795 255 230 236 551.232056 219.456024 3
1.084510504754622 -0.57469855075297771 2.8028320695107425 255 227 233 535.680054 210.816025 3
1.1916423574566786 0.40987606449606107 1.6162152569613939 29 35 53 668.736084 387.072021 3
-0.3013799390856704 0.43788393870500886 1.4711865797442751 71 96 255 305.856018 406.080048 3
-1.1457819589018379 -0.36138520133145313 2.1967759387590657 226 227 227 184.896011 222.912018 3
-0.9342949872415609 -0.60346823444857145 1.1265548179303129 255 42 65 67.3920059 81.216011 3
-0.98010746765587076 -0.70637898421656065 1.1752443447519942 255 47 69 67.3920059 57.0240059 3
-0.95349216305504303 -0.48416115544437788 1.1709878514297527 54 81 255 69.1200104 129.600006 3
1.3594296940765027 -0.064143836303401702 1.7996801812494585 109 142 180 672.192078 273.024017 3
1.3642535884667404 -0.26195571196085854 1.9359540591525608 118 157 197 656.640076 235.008026 3
0.72131812944199614 -0.62926059212278385 3.3382763165350831 243 255 237 470.016052 214.272018 3
-0.3688679704379787 0.56849681287061293 1.3054971801450508 133 148 171 276.480042 456.192047 3
-0.92091422821296565 0.081923190568723214 2.0716627833487147 147 157 173 212.544022 302.400024 3
-0.37505181719783653 0.261357500080585 1.1353947204241508 255 232 233 259.200012 374.976044 3
1.4355118699398903 0.56209468581642796 1.6471764769731205 13 28 255 717.120056 421.63205 3
0.43897337867625685 0.34136030008331286 0.51324033698145 175 255 185 710.208069 540.864075 3
0.028224171756022098 0.53947580351121593 1.011696926967613 208 208 255 397.440033 492.480042 3
1.1516324021336164 0.45248816076125775 1.8529311687914953 170 255 122 622.080078 381.888031 3
19.391898329546898 -31.221123721349052 58.970724640967397 169 190 215 508.032043 84.6720047 3
1.103456609687854 -0.45817191221405384 2.5673746379437166 236 242 255 549.504089 219.801636 4
1.3862367869173853 0.11535678641468233 1.8114838481633404 81 146 174 680.140869 313.113647 4
-0.543667185329892 -1.9571110377104004 4.1573138457893837 186 215 255 333.84964 103.680016 4
-0.91706601827325951 0.47103470210859688 1.3486393614872094 60 60 57 124.416016 420.940857 4
-0.53982922243788511 0.48379974193194042 0.87616079518043044 255 141 155 147.225616 501.811279 4
0.89892990877149337 -0.32802350222706567 2.7107639603497535 239 242 245 508.032074 242.611237 4
-0.33330127134829635 -0.30255506593065706 1.3391815041532555 237 255 222 290.304047 196.992035 4
-0.93440256698338864 -0.53499033570813448 1.1330333017992675 90 255 37 66.3552094 105.753616 4
-1.0072455238773519 -0.34984346540495903 1.2474456617113368 95 255 58 70.5024109 180.403229 4
-0.40891115637195119 0.27585069807682849 1.2595759340979584 255 232 234 259.200043 373.248047 4
1.3425104000184525 -0.062933744674670722 1.7956417882300366 140 186 255 669.772888 273.71524 4
1.2730595149404462 -0.23612886396387078 1.7857581302823764 255 117 157 655.25769 236.390427 4
0.86250865737640803 -0.51761678241594422 2.802084643550228 238 243 255 501.811279 217.728027 4
-0.35183668094636378 -0.4265497171620064 1.2619817686743255 214 230 255 277.862427 157.593628 4
1.1330835892073443 -0.3607098521812403 2.3880740893549142 244 255 239 566.092896 230.169632 4
0.23847578682385073 0.54214012458551974 0.86390640563427512 255 129 138 491.443268 530.841675 4
-1.4790863482589582 -0.44869664164659695 2.8863685823181857 227 255 225 190.771225 230.169632 4
-0.15727457682474877 0.0180769033571202 2.7617951797978346 135 255 92 362.880066 294.451233 4
-1.0341111778624694 0.35053194848818725 1.1741164874274266 31 27 255 45.6192055 404.352051 4
-0.96740479517422573 0.30525315035814116 1.2530907781251335 22 0 255 85.0176086 383.616058 4
1.1427784198015074 0.45017465798244372 1.8493827524063065 166 255 120 622.080078 383.616058 4
-1.0244262652381835 0.35474131732380776 1.3677125568485522 30 38 13 92.0678558 388.177979 5
1.2034732742337093 0.54074206801915337 1.5627010412373874 255 6 13 679.311462 420.526154 5
-0.26650061267178904 0.39806520692635539 1.2664951536998572 94 255 43 306.063416 408.084534 5
-0.91080530941560411 0.46676705156350151 1.3391645174623958 60 60 57 124.416016 420.526154 5
-1.2126110353986759 -0.3862312240586343 2.2268237438478229 227 227 227 176.670746 221.46051 5
-0.97999041167936207 -0.62992504599740229 1.1602465571777678 43 66 93 64.6963272 82.1145706 5
-0.32108676161202876 0.28994856512398282 1.4084365270301862 127 255 107 298.59845 365.783081 5
-0.34330776715926969 -0.31272849576130146 1.3728841682616237 255 221 229 291.133484 196.577301 5
0.69138139474303895 -0.57847502260099048 3.0618937978305318 239 243 255 465.315918 216.483871 5
-1.0424257733896827 -0.20261511867502091 1.2455589574907568 255 19 26 59.7196884 223.948837 5
0.73006458403017049 -0.26460739308185088 2.2176714164991278 245 255 239 510.105682 241.367081 5
1.1027673491347008 -0.35586952366808788 2.2517180568841901 255 237 239 567.337036 228.925476 5
-0.98879951059116822 -0.15518802560355549 1.1733742804885563 255 26 30 59.7196884 238.878754 5
-0.53218947268440875 -1.9091011158650386 4.0333409033626362 182 208 255 333.434937 104.509453 5
-0.51424225156819903 -0.051007466099338594 1.208788195667982 112 135 255 221.46051 271.226929 5
-0.37902419732946058 -0.22297710862134945 1.5063961951740836 255 229 235 291.133484 231.413788 5
1.1123997976549891 -0.62824195126110693 2.0795265735080122 223 234 255 589.731934 169.20578 5
1.2154552819454181 0.45212096400967505 1.611437186712176 138 141 145 676.82312 395.642944 5
2.4457647543177128 0.25372538897154906 2.8589965635790016 64 143 176 716.63623 318.505005 5
1.3474377589153659 0.11754065578625328 1.7363617910970399 146 176 255 681.799805 311.040039 5
-1.0360608820524879 0.2695084485956788 1.1825046098699556 255 82 104 47.2780876 375.736359 5
-1.0392236630621756 0.13989131677381805 1.1773160503029869 255 76 91 47.2780876 333.434937 5
-0.98911698961682326 0.19889927599498303 1.6727584658815902 199 255 188 154.275864 330.946594 5
1.3631903978969624 0.51786350859592867 1.5407117055485324 255 10 15 719.124573 420.526154 5
1.1141995737684001 0.38562272725378521 1.8722727644129025 184 255 150 614.615112 368.271423 5
-0.93536212679001141 0.40027250920446322 1.1744786028149869 22 0 255 77.1379318 418.037811 5
1.2530236351029724 -0.67259891085382006 2.115998773462354 232 255 203 618.098816 167.215134 6
0.94453941788104867 -0.3584412352916887 2.9963822072599609 255 239 242 507.617371 238.878769 6
-0.34969708091902296 0.30106372134715631 1.5676939802911063 255 131 151 295.612457 367.276093 6
-1.0022023384589023 -0.092865653012966787 1.1843550190742409 34 57 81 56.7337074 259.78067 6
-1.0195108463763036 -0.16097912542765802 1.212674037232579 255 26 30 59.7196922 238.878769 6
0.87508925661571191 -0.53254743667622251 2.872825472031332 243 255 234 498.659424 217.976868 6
-1.1502615230652582 0.37268224317176757 2.1019340709826286 207 208 255 173.187103 355.332153 6
-1.3664673680337698 -0.099204091428593655 2.7595248701095674 224 255 222 194.088989 271.724609 6
-0.17563797309530749 0.021821619407408566 2.9491161201012916 114 134 255 361.304138 292.626495 6
-0.55233484359552776 -0.044348698288326771 1.2960945479842354 103 113 134 220.96286 271.724609 6
-0.52083853404534697 -0.44750346445817346 1.3250168018153663 230 255 204 226.93483 155.271194 6
-0.65247060361116338 0.42539282936572065 0.80787126029495093 147 149 149 68.6776428 489.701477 6
1.3216465499848336 0.07524718915332268 1.7693163225706634 255 85 128 671.846497 307.556396 6
0.31702259799786314 0.28260667960590125 3.6291788916826793 154 169 168 412.065857 316.514374 6
1.2438316615281457 0.27581265644679587 1.7087231578115114 113 137 255 665.874573 355.332153 6
-0.27774144294766723 0.45624294314261304 1.1699287035603154 132 144 165 292.626495 441.92572 6
-0.5368963066842074 0.47611248211161616 1.2292804098299146 133 149 255 217.976868 432.967773 6
-0.89090858456624389 0.020782184526312308 1.1816828790224161 183 190 255 101.523476 295.612457 6
1.0910105103717118 0.43758544093465956 1.789997470958502 132 150 176 624.070801 382.206024 6
-0.27402190219479339 0.4054308863531082 1.3189544050042916 42 66 92 304.570435 409.079895 6
-0.94484385967807949 0.20255334841001971 1.6068452050201429 255 191 194 155.271194 334.430267 6
-0.96440351009715197 0.41650280880399093 1.2313121306560797 22 0 255 77.6355972 418.037842 6
-0.59631519284828816 0.15275343834920951 1.400203244742686 224 227 255 217.976868 334.430267 6
0.43056276141246475 -0.48977664265954068 3.6627797322379907 176 255 140 426.995789 235.892776 6
-0.98051321838994543 -0.55957213093109204 1.1605243381939689 68 100 255 65.691658 104.50946 6
-0.32490625537591411 -0.2958156240647547 1.2918011136735443 238 255 223 286.65451 197.074982 6
-0.47614487224135438 -0.075730070094682023 1.3021711545709675 255 96 107 243.656357 265.155426 7
1.1561230049702704 -0.15984146393746079 1.861250067035308 255 113 149 623.473572 254.405899 7
-0.20160183787065034 0.026788384160189471 3.3041116596791014 114 135 255 361.901337 293.820892 7
1.4719656967264134 -0.52842181612077976 2.3746045481281781 255 229 234 619.890442 197.074982 7
1.3037653884798872 -0.038033009776135551 1.7096132576451781 184 255 101 670.054993 279.488159 7
1.2529573497313664 -0.22411484189767295 1.7726901748005881 255 115 155 655.722229 240.073166 7
-0.55233484359552776 -0.044348698288326771 1.2960945479842354 133 255 99 218.574081 268.738617 7
1.3855739921080432 0.11389848417793075 1.802825962587681 81 145 175 680.804504 311.736786 7
1.094155614516191 0.28809878832259728 1.565182420616873 101 113 131 644.972717 358.318176 7
-0.64873782872663721 0.56674918967144738 1.5177115373347521 164 255 141 214.990891 433.564972 7
0.34430363406803854 0.3268678460098946 4.2987687397964187 155 170 168 412.065887 315.319977 7
-0.14827489864743049 0.573536606388661 1.2861060368829551 55 58 255 333.235901 455.064056 7
-0.22839329631136129 0.36214822492828924 1.1107633636989562 43 75 98 304.570435 412.065887 7
-0.31571831709455056 -0.41643730386683453 1.2062900215766783 228 255 196 290.237701 157.659988 7
-0.50313793956843966 -0.43136464774438188 1.2891240039019589 217 231 255 229.323624 157.659988 7
-0.51774566729229665 -0.52308592386503738 1.3070990995318161 204 224 255 225.740448 132.577713 7
-1.0091539899338118 0.2397847048494135 2.1111608170592344 110 126 255 197.074982 333.235901 7
-1.0782641125657682 0.22010688275048218 1.8600483808988457 197 255 186 154.076813 333.235901 7
-0.93876242341854121 0.14524537558367667 1.7805633153904568 186 255 198 182.742264 311.736786 7
-0.89253961905342827 0.389610416057942 1.112496346942073 255 13 14 75.2468109 422.81543 7
-0.29080532549990767 0.25024260720631608 1.2473046294624441 116 129 255 297.404083 372.650879 7
-0.53264230104245414 0.44081971311650958 0.97167187532382382 255 232 233 175.575897 465.813599 7
-0.14467055636246506 0.55892933121769695 1.2617077550552356 232 233 233 340.402252 462.230438 7
1.1009098028729853 -0.67610442543567217 2.0689794734713427 255 218 225 587.641785 168.409531 7
0.98080011880056583 -0.42315410199994141 3.138966834608266 239 242 245 508.811798 240.073166 7
0.43056276141246475 -0.48977664265954068 3.6627797322379907 173 255 136 426.398621 236.48999 7
0.74522840404484714 -0.65732398727144892 3.5058322278711822 237 255 225 462.230438 218.574081 7
1.2468015052199135 -0.43858260160185303 1.858756695852966 233 239 255 641.389526 200.658173 7
-0.57832703125230411 -1.405153974417197 3.628870734024213 160 255 109 318.903168 139.74408 7
-0.62175143098321772 -1.0490239520196138 4.2232949236330555 117 255 82 322.486359 189.90863 7
