ply
format ascii 1.0
comment Written with hapPLY (https://github.com/nmwsharp/happly)
element vertex 81
property double x
property double y
property double z
property uchar red
property uchar green
property uchar blue
property float ix
property float iy
property uchar octave
end_header
-1.421603994983518 0.24184316361446376 2.174179661844188 247 251 255 133 331 0
-1.4290843710669541 0.23728242876639627 2.179545350201872 247 251 255 133.200012 331.200012 1
-1.6477375061609902 0.82963357361714463 2.0645066224733721 98 102 102 76.3199997 442.080017 2
-1.1528370057235979 0.72243398849215446 1.3615748821450282 255 87 92 59.0400009 492.480011 2
0.59697565330763469 -0.33750947517756302 1.2713882842676094 255 226 233 563.040039 185.76001 2
0.82297156423826379 -0.4516990087691598 0.97588883569973284 211 228 255 705.600037 109.440002 2
-1.1226974319119201 0.721265647675148 1.2619157706311928 255 11 17 43.2000046 504.57605 3
-0.29418052412855333 0.60630812341913487 1.4559730801694162 145 162 255 305.856018 447.552032 3
-0.14508025627188692 0.66993505445925872 3.2527124560655398 199 255 153 366.336029 364.608032 3
0.70964005134794039 -0.20098824027463713 2.1513303143874065 246 248 255 513.216064 250.560028 3
0.21827952822833074 0.14703329961304828 3.3870102852716624 255 129 201 411.264038 305.856018 3
-0.21157949428021894 0.70086332734311274 2.2297218815594526 186 255 144 346.29126 408.499268 4
-0.21479358655929781 0.26450312717903041 0.48705943830071696 255 135 156 211.507233 493.516876 4
-0.2163480537253708 0.21965775570150178 0.49744350460247677 255 136 155 215.654434 458.265656 4
-0.21170702518511453 -0.023594879894071885 0.47876932310621889 255 147 166 215.654434 269.568024 4
0.73307595417780091 0.52317178112675644 1.179126264012381 229 230 230 624.153687 454.118469 4
-0.40464344412326225 0.77455014987206794 2.4118336760546759 255 71 139 315.187256 412.646454 4
-0.27295765008757433 0.36099708047748463 1.3456971045539436 158 255 53 306.892853 387.763245 4
-0.21145940249989525 0.17580936972446054 0.47273631983292042 255 137 157 215.654434 429.23526 4
-0.21876598652632806 -0.13477618967255739 0.5023976705527895 255 142 161 215.654434 184.55043 4
-0.27107303928791104 -0.15317850370671299 0.50286072646968272 238 255 227 174.182419 170.035217 4
0.85952857045719555 -0.081333466237513641 0.99409605263091017 255 89 107 715.39209 259.200043 4
0.53307256166572481 -0.36405624942136405 1.6169911662660859 232 236 243 512.17926 199.065628 4
0.60939096176279417 -0.47041158232832347 1.2441568849292342 219 226 236 568.166504 145.152023 4
-1.123451699955671 0.70636718993394443 1.3194877695403884 36 36 255 53.9136086 495.590485 4
0.73893401333319186 0.44745872533352871 0.89684542453554261 163 255 110 702.9505 481.075256 4
0.6040124028687468 0.096176435775342572 1.3559821464928428 255 202 211 559.87207 315.187256 4
0.75720785468011642 0.12821974277171172 0.98309978899546824 112 122 140 680.140869 342.144043 4
-1.3062496285706779 0.66604937657366237 1.8431877755966513 88 91 93 116.951057 425.502777 5
0.70361598384667312 0.52193136668100171 1.1598799054720859 227 228 255 617.103455 465.315918 5
-0.18166213190890712 0.68516702339273894 2.2952674917383336 189 255 147 350.85318 403.10791 5
-1.9979691800000778 0.47012755353088631 2.3560372029127334 203 213 255 57.231369 360.806458 5
-1.1925909910731711 0.74507321523886483 1.4091023930344075 88 89 255 57.231369 492.687439 5
-0.2177758947999866 0.009955599244840907 0.4980655714837372 146 165 187 216.483871 296.110107 5
-0.22079438184421818 -0.22777495630760969 0.50800564096588019 134 154 180 216.483871 116.951057 5
-0.21561413077828773 0.26701215082018909 0.49437005968499736 132 152 176 216.483871 497.664062 5
-2.2074596518126928 0.16695623610235938 2.5477541315511818 173 190 255 49.766407 313.528351 5
0.49059053093294791 0.0014800893636408574 1.5284120021268599 255 249 250 507.61734 288.645172 5
0.78124397124190725 0.47418647360799715 0.95380790005487004 103 119 146 704.194641 480.245819 5
0.56748695796048976 -0.017365573583970506 1.2150501819438579 249 249 251 564.848694 281.180206 5
-0.22663910968848988 -0.3212666148472263 0.52631205073907861 174 255 131 218.972198 49.766407 5
-0.30841507039282767 0.65022227236605001 1.5871923202789224 154 255 71 306.063416 445.409332 5
-0.29109033053119138 0.66945490545765551 1.683408265040943 175 255 83 318.505005 437.944397 5
-0.19075463477566545 -0.11991764683912254 0.42614464829980925 140 160 183 216.483871 181.647385 5
-0.21634641093455054 0.21635640252818114 0.48873983572835744 134 153 177 216.483871 455.36261 5
-2.0311297461229798 0.70434038699805823 2.5636162737350716 194 255 194 82.1145706 390.66629 5
0.55612993016812129 0.6442120898243604 1.3003063223820428 119 121 121 544.942139 475.269196 5
-0.21972157884436472 -0.24161093492821095 0.50255354212632142 255 139 159 211.507233 106.997772 5
-0.19222442326352152 0.49318191308283099 1.6924709188835534 142 164 186 340.402252 397.135956 6
-0.43482963549642939 0.56071725763563252 2.2699491794021078 255 52 135 307.556396 385.192017 6
-0.22002720491346173 0.11235993685580792 0.5011386001397593 183 255 141 214.990891 376.23407 6
-2.7911507922555288 0.84914164170262996 4.2000560068470385 96 110 255 125.411354 370.262085 6
-0.22960228342307776 0.57453333564867592 2.5763232369301345 165 188 255 349.360199 373.248077 6
-1.7436033406846878 0.40913617724723794 2.0603294654440445 187 255 134 62.705677 367.276093 6
-0.21784262584380532 -0.19540980740479041 0.48496853507194615 156 180 255 217.976868 134.369308 6
0.8239314374265394 -0.45965663553076763 0.98321045216422043 188 207 226 704.692383 107.495445 6
0.83044160466798789 -0.46081036698055977 0.98937479564367603 205 216 230 704.692383 113.467415 6
-0.22046505525529758 -0.13853416328257007 0.50385650342515387 184 255 145 214.990891 182.145065 6
-1.4441921583738471 0.1243809990135481 2.3450378398725462 255 242 246 143.327255 310.542389 6
0.52918684232606417 -0.36348338148112269 1.5912921016325621 236 243 255 513.589355 200.060959 6
0.46009918134846672 0.70269461233752273 1.6377555556604051 255 116 121 495.673431 450.883667 6
-0.39717189326453939 0.7543515712209593 2.3246311447075652 73 141 163 316.514374 412.065857 6
-0.18988322633776811 0.68877792341694777 2.3002341474117971 166 189 255 349.360199 403.10791 6
0.48839033257853837 -0.16034099984692596 1.2119812655642228 244 247 255 537.477234 235.892776 6
-0.37514742803904433 0.71509628844920514 2.1861675630670696 255 71 139 315.319977 412.065887 7
0.52918684232606417 -0.36348338148112269 1.5912921016325621 255 228 235 515.978149 193.491806 7
0.59865502267494985 -0.11514725783454072 1.3660420932922976 249 255 247 558.976318 254.405899 7
-0.15104927759388964 0.77637961745726369 1.7051263370044341 255 142 161 347.568604 462.230438 7
0.66313706836168129 0.1191622687235771 1.2329563448503009 241 255 227 594.808167 326.069519 7
-0.23129905587407418 -0.030716848973645794 0.54224954125323688 188 255 149 214.990891 268.738617 7
-0.22168082760351693 0.078609343045249608 0.49847263029595812 184 255 144 214.990891 347.568604 7
-0.21464103511706467 0.010341387506353272 0.48703179207297165 188 255 148 214.990891 300.987244 7
-0.33675757691744002 0.010606149077916183 0.54448373089314739 255 245 247 143.327271 293.820892 7
0.59442988570614452 -0.37547778236163165 1.3065863415893739 240 255 227 562.559509 179.159088 7
-0.22361962637536337 -0.14021955762614302 0.50804856030840195 184 255 145 214.990891 182.742264 7
-1.4745763884213043 0.73047595315373925 1.8442392850558438 255 87 90 71.6636353 440.731354 7
0.26163462560985296 0.18176138075932907 1.653369091942527 245 249 252 440.731354 329.65271 7
0.16291287358592954 0.17031181567364226 3.5829760365292245 109 186 194 408.482697 308.153625 7
-0.19315224502739348 0.68732187993817739 2.2744105366715903 255 151 169 351.151794 401.316345 7
-1.0854877904504332 0.67475899507443882 1.3166268351797576 255 90 96 71.6636353 483.729523 7
0.53062115347356631 -0.17208343546290283 1.3084393951317601 244 247 255 537.477234 236.48999 7
