ply
format ascii 1.0
comment Written with hapPLY (https://github.com/nmwsharp/happly)
element vertex 183
property double x
property double y
property double z
property uchar red
property uchar green
property uchar blue
property float ix
property float iy
property uchar octave
end_header
-1.0146309506325539 -1.5555113995317 5.3305308971906902 221 233 255 309.600006 175.200012 1
-0.31130851789073799 0.45121046793950237 0.8456828026182408 90 85 255 241.200012 493.200012 1
-1.5210986988083111 -1.698640957418565 2.7157393814728836 202 255 128 170.400009 45.6000023 1
-1.3900459977490924 -1.8535722530387762 2.6680266798623014 120 155 197 184.800003 22.8000011 1
-1.3847474718616888 -0.73323684256996668 2.7003846998268117 255 226 231 187.200012 183.600006 1
-1.6350150906592642 -0.92660529084387555 2.8035847480617546 255 210 220 159.600006 159.600006 1
-0.78728200517151992 -0.54774955173023554 2.480211869544255 227 228 229 264 205.200012 1
-0.47133350484746583 0.39734344892855783 0.92997572258977756 153 38 255 189.600006 451.200012 1
-0.89086174565211307 0.44859593174134221 1.2714594784979316 255 46 65 115.200005 421.200012 1
-1.3179125980373971 0.30509030027106565 2.301128003026256 213 255 226 166.800003 339.600006 1
0.55876105946108645 0.48727701419352687 1.3259924958591371 255 40 66 543.600037 427.200012 1
0.65828264111750934 -0.57897178388760229 4.1908940439874955 242 245 255 445.200012 235.200012 1
-1.5880985264629519 -1.2887028910919329 2.7490723722702852 203 212 224 160.800003 109.200005 1
-1.6795556169464954 -1.5103171711004237 2.897127922520073 255 162 187 159.600006 87.6000061 1
-1.3717817592637713 -0.35709120407452255 2.6823838891893876 255 242 243 187.200012 237.600006 1
0.67545592722782477 0.078666322232436303 0.72823614337709275 167 179 179 740.400024 330 1
-1.4672671517971616 -0.046174700172964489 2.7773005349093562 245 247 255 181.200012 283.200012 1
-1.5708368631616549 -0.047375336687621589 2.7886669528178474 247 255 245 166.800003 283.200012 1
-1.4407462338419004 -0.21385411543070532 2.7223431257587625 244 246 255 181.200012 256.800018 1
-1.3930673584021322 -0.74049460060905981 3.1198427096319916 120 146 255 213.600006 198.000015 1
-0.4904520607617715 -0.082231314040005027 3.9609776456146957 53 61 255 333.600006 279.600006 1
-1.240785938305347 -1.975659850488082 5.2187879963555233 199 212 225 292.800018 142.800003 1
1.2276512010281286 -0.7380452729778304 2.5939433321473371 223 234 255 565.200012 177.600006 1
0.28359286521594163 0.48683814324167435 1.2806348585849379 136 159 255 469.200012 433.200012 1
-1.3619335696522654 -0.8879587946357671 2.6704546045409723 255 209 220 187.200012 159.840012 2
-1.6152756945986746 -0.9184987194231905 2.7782270048396844 255 210 220 159.840012 159.840012 2
-1.3889086449282715 0.14352665387906238 3.590853097004886 134 255 99 234.720016 303.840027 2
-0.97177613893477988 0.32830631468381727 2.0803483906934801 223 224 255 205.920013 347.040009 2
-1.5452970830057353 -0.5515385185741325 3.0037280948213425 236 241 255 185.76001 217.440002 2
-1.3668384934029221 -0.65909239287125687 2.6623550320474498 234 239 255 185.76001 192.960007 2
-1.7083198348344379 -0.73283118055925633 2.9746097970150114 236 239 255 161.279999 192.960007 2
-1.39258812549263 -1.2731853444810883 2.7067705839602829 201 220 255 185.76001 108.000008 2
-1.4120681681786995 -1.3521918061010916 2.7522363059533581 196 218 255 185.76001 99.3600006 2
-1.5355618394662316 -1.322059122269799 2.6754641541235276 197 218 255 165.600006 99.3600006 2
-1.4009946836927201 -1.0458374195434175 2.7285028606370085 203 214 227 184.320007 141.12001 2
-1.5965546103561334 -1.000680395865845 2.7517744002254934 230 255 212 162.720001 146.880005 2
-0.46628237141158468 0.34957511709529954 0.95908667096880729 255 77 84 195.840012 430.560028 2
0.61086871410440136 -0.46129253618763932 4.4360835959551572 235 238 255 437.76001 250.560013 2
-1.4128901125635318 -0.30037935729797371 2.7328721673453478 245 255 240 182.880005 244.800003 2
-1.5698931532394083 -0.30246866010969953 2.7237643506196725 242 245 255 161.279999 246.240005 2
-1.6214166289517697 -0.45604746559490572 2.7964058214416281 241 244 255 161.279999 226.080002 2
-1.3244683496789573 0.35224124373759602 2.596160907391512 224 215 255 185.76001 339.840027 2
-0.57691291557188218 0.49846074428159515 2.9594267277955559 255 191 200 311.040009 351.360016 2
-0.6429235866396561 0.2970587850059736 2.7949827526324302 226 227 228 296.640015 326.880005 2
-1.5799417012091097 -0.014572140061973729 2.7433318403703382 247 255 245 162.720001 286.559998 2
-1.0639832441041879 -1.5841522625419653 5.3093985366935055 220 233 255 309.600006 174.240005 2
-0.78491196454323786 -0.32150954491676681 3.0172965747883724 226 255 226 286.559998 246.240005 2
-1.326936821824706 -0.41850825900085231 3.0879076583095637 140 255 103 218.880005 236.160004 2
-0.96370076903624735 -2.0990691653899516 5.7638544759764168 255 189 209 319.680023 148.320007 2
-1.540073756117073 -1.7259015297583697 2.7371585939180507 163 202 255 169.920013 47.5200005 2
0.13463513948669448 -0.72928918235651274 5.2131899874618401 168 170 255 393.120026 231.840012 2
1.3799707372248768 -0.8881501931914918 2.4587657338254134 212 221 231 600.480042 148.320007 2
-0.21302930014786359 0.47167404117466516 1.2189560285621677 255 106 142 315.360016 436.320007 2
0.28426352071451055 0.48756502296377885 1.2823350589503191 136 159 255 469.440033 433.440002 2
-1.1339955516252549 -1.7537675205122982 4.6827512858139437 199 212 225 292.320007 142.560013 2
-0.78047091611968655 -0.19151122018813016 2.7782085009054178 224 226 226 276.480042 260.92804 3
-0.99022815060488734 -0.15185389489886358 2.9252415395267066 149 255 94 254.016022 266.11203 3
-0.70601078567605313 0.15205082539445305 2.872132527986003 162 255 150 290.304016 311.040039 3
1.3950587879025966 -0.75486577583910097 2.1628313200236495 231 255 207 630.720032 155.52002 3
-0.52485152408197799 0.38509875447068259 1.0726957956178458 58 255 73 198.720016 428.544037 3
0.98631384179104686 0.31917003658049159 2.3896240225957293 133 255 119 542.592041 340.416046 3
-0.71955855274497926 0.36964241996962494 2.8431866723019428 139 255 130 286.848022 338.688019 3
0.69293390172528035 0.47227392112275207 1.6282411122025118 255 107 136 547.776062 402.624023 3
0.67347927131692631 0.46457972933266745 1.5930292161218813 153 161 255 549.504028 397.440033 3
-1.3189481575442441 0.35032378951131882 2.5883890508907279 228 255 225 186.624023 340.416046 3
-1.3952725401070611 0.3491176231953767 2.4872291892524858 255 157 167 171.072021 343.87204 3
0.5954744879248236 -0.46781096525063015 4.3223978324932411 242 255 230 438.912048 247.104019 3
0.62261481724589574 -0.53036271685525616 3.9614052215765412 239 241 245 444.096039 235.008026 3
-0.71552985487299336 -0.39312519273354363 2.8183057469324777 226 255 225 286.848022 235.008026 3
-0.94230362049839655 -2.0368534429194876 5.6012467922294542 255 189 209 319.680023 148.608017 3
-1.6213329749059096 -1.4525184845574601 2.7932595250591659 214 255 164 162.432022 88.128006 3
-1.5206589562812285 -1.7225512130959142 2.7100376832307163 162 202 255 169.344009 44.9280052 3
-0.045948213226822299 0.49406779790086314 1.0131008774689598 222 255 223 366.336029 478.656036 3
-1.4346745732952164 0.26089528111726856 2.9195019921488434 255 150 136 195.264023 319.680023 3
0.68985253375582245 0.28914224270412486 0.75667818261545006 112 119 124 732.672058 433.728027 3
0.2684742174238588 0.45586799798407102 1.1937811814523651 123 137 160 468.288055 433.728027 3
0.078543982155567571 0.32255396877908632 1.0382779905114603 139 152 172 412.992035 406.080048 3
0.45021074938654349 0.53600368822987554 2.0045170149362472 163 154 255 473.472046 392.256042 3
1.5302718691148629 -0.75235102894912209 2.1725925688956473 199 214 229 656.640076 155.52002 3
-1.275735811321101 -1.9924333091346549 5.3276184197488581 200 213 225 292.032013 143.424011 3
-1.2603181791017195 0.52853986957616361 1.9026224173022332 91 101 120 128.563217 393.98407 4
-1.1275471711261917 0.45910525935864505 3.3945595700904594 165 172 255 257.126434 340.070435 4
-0.64074892854225052 0.29350798320084998 2.788813068623468 225 255 217 294.451233 327.628845 4
0.20638259093236777 0.47458913991054774 2.174437873170302 255 228 227 423.014465 375.321655 4
-1.3379410434089807 0.14390529394182927 3.4412823250322777 136 255 102 234.316833 304.819244 4
-0.90709889060768356 -1.4410366769688903 4.8782014054429341 207 220 233 308.966431 174.182419 4
-1.6218235803693739 -0.46592838458116692 3.7589006333657373 255 102 120 219.801636 236.390427 4
-1.5434642988500329 -0.80161873553559593 2.6671286972542054 227 235 255 161.740829 172.108826 4
-1.6129020958941553 -0.3067796178106702 2.8077802339855009 242 245 255 161.740829 246.758438 4
-0.896433970842057 -1.9280800133058564 5.3443121186412954 255 189 209 319.334442 149.299225 4
-1.5817581460767824 -1.4355870651901963 2.7358462411842184 188 214 255 161.740829 87.0912094 4
-1.9236901609544153 -1.2649988274401949 3.3505966712836921 255 209 218 163.814423 141.004822 4
-1.4163930033931917 -1.2819073166171595 2.7311862042990351 183 200 219 184.55043 107.827217 4
1.3925575332028246 -0.54796152503158857 2.140095865297047 224 229 236 632.448059 190.771225 4
0.13158005508148651 -0.73767546823913821 5.1484595241072446 168 170 255 393.98407 232.243225 4
-0.4624759649417638 0.35862209650034971 0.95659745348363412 125 133 119 196.992035 431.308868 4
-0.44712007909305607 0.48238043379429157 0.95312174779273784 255 59 85 203.21283 485.222473 4
-1.3066954247168581 0.21561230582931798 2.6728276199831225 136 255 152 194.918427 319.334442 4
0.41570491714017288 0.071386473855646143 0.86482991899972061 119 159 180 568.166504 317.260834 4
0.96153682337384438 0.38574449652628823 2.3026830918435768 255 116 116 543.283264 352.512054 4
17.148089886946394 -18.509862299506111 32.094159550067403 207 255 130 590.976074 64.2816086 4
0.87318782686405616 -0.80137432778051354 3.8094035465511142 240 255 232 474.854462 203.21283 4
0.73808956654562641 -0.67648452945653414 3.6292353111206594 243 255 235 462.412872 219.801636 4
-1.3946480928788043 -2.122007605053172 5.7321181148893441 201 213 226 292.377655 145.152023 4
-0.44794879051121583 0.39702498943330061 2.450247196677946 255 177 188 311.040039 345.876526 5
-0.32939145994388808 0.40928435100097044 0.85794733840633652 102 130 136 236.390427 467.80423 5
-1.393180540094328 0.15240921952152536 3.563965165582335 117 137 255 233.902115 303.575073 5
0.50702872076872874 -0.37402387785919389 3.414903874303687 237 241 244 440.432709 246.343719 5
0.61906031467180955 -0.53251615711111988 3.8723388370787379 243 245 255 445.409332 236.390427 5
-1.7949715853092458 0.39664941262321907 3.1243234993925189 226 221 211 164.229141 340.899902 5
-1.825438065017623 0.36486913732908227 3.1166063485324385 255 183 185 159.252502 330.946594 5
-1.2139354060333498 0.45372263055029299 3.6316694913242458 145 150 157 256.296997 338.41156 5
-0.92011046152450504 -0.6416636995572581 2.8878068534399328 255 226 227 263.761963 204.042267 5
0.77482407746800552 -0.68668223712013687 3.9937716280223921 243 255 236 462.827576 218.972198 5
-0.896433970842057 -1.9280800133058564 5.3443121186412954 228 255 190 318.505005 151.787537 5
-0.30301303663885371 0.43419920543874463 0.81398165904763142 93 85 255 241.367081 487.710785 5
-1.2456795082031733 -1.9372611514342322 5.2283758634898367 207 226 255 293.621796 144.322586 5
-0.25625113017841938 -0.057165113574865603 6.3521858528380735 117 137 255 365.783081 283.668518 5
-1.5905619531678274 -1.0630924786533897 2.7675035277434401 208 217 229 164.229141 139.345947 5
0.32504994923789354 0.50074541351501067 0.98813543093626066 255 220 222 515.082336 485.222473 5
-0.43257301175011809 0.47219072773374893 0.9222446507653137 90 89 255 201.553955 482.734161 5
-0.49135242971619286 0.40532511653297187 1.8307704902407593 125 144 255 281.180206 370.759735 5
-0.69887676304775104 -0.3835526609512161 2.7686489849780225 226 255 225 286.15683 236.390427 5
-0.89278999501701284 -0.92069356558027549 3.4109942748484858 255 227 228 283.668518 184.135712 5
-0.34843234545054291 0.47117980344939409 1.0363686083904899 105 255 96 258.785309 462.827576 5
0.5290064555329721 0.46540868771309823 1.0625677727462119 235 235 255 577.290344 457.850952 5
-0.4316882818508001 0.32864319817512944 0.88174752410804191 96 102 87 196.577301 430.479431 5
-1.2611480904713517 0.44882688445161978 1.589627719393488 199 255 204 82.1145706 398.131256 5
15.972184293029779 -19.04641295572462 33.290078743935609 139 173 209 564.848694 72.161293 5
-1.5557806580500486 -1.7521477964528058 2.7703503588612919 163 202 255 169.20578 47.2780876 5
-2.0606893902199532 -0.38050024054382942 3.5798739123155903 241 242 245 164.229141 246.343719 5
0.55220266732302903 0.47429108206881715 1.4423370528001871 101 129 135 528.519287 415.051849 6
0.85196894803211654 -0.75384880239762075 3.5854671261987177 240 255 232 474.771545 203.046951 6
-1.5488715853867268 -2.3039312455123393 6.3334065246470432 201 214 226 292.626495 146.313248 6
1.2042062297200873 -0.72143173778922809 2.5430115849887125 255 210 222 567.337097 179.159073 6
-1.0495470215122573 -1.5860368553424913 5.3444270281941764 255 206 219 307.556396 173.187103 6
-1.3335246846823412 -0.18670623997880126 2.759367286211944 245 246 255 197.074982 262.766632 6
-1.54286626281923 -0.29336492148619608 2.7159606307337421 241 243 245 164.229156 247.836716 6
0.33679502545396045 0.51930813640532458 1.0242745659302579 223 222 255 513.589355 486.715485 6
1.3805715370454879 -0.81882481663747131 2.2150791763652036 217 230 255 621.084778 149.299225 6
0.59535536141608403 -0.49563335077997694 3.5066836992266364 239 241 245 444.911713 235.892776 6
0.079313755324056379 -0.5232193333445182 4.656949226289119 13 22 255 385.192017 247.836716 6
-0.68087607144896145 0.36157937557645031 0.8152620251260132 111 255 107 62.705677 459.841614 6
-0.69729740872888035 -0.51553909340158965 2.7022556345716926 229 255 228 286.65451 214.990891 6
-1.1019376533113485 -1.094387564759598 4.1623174556347502 227 228 229 280.682556 185.131042 6
-0.30675351245855809 0.4376949055228907 1.0579179614471919 121 255 76 274.710571 444.911713 6
-0.33595636908164161 0.46774288610458908 1.0258943968788845 106 131 134 256.794678 459.841614 6
0.29621107245396305 0.52206636856868371 1.342931272279015 166 255 127 474.771545 435.953735 6
-0.21388886476163926 0.45497529226640404 1.1907092505055492 146 150 255 313.528381 435.953735 6
-0.69544957164781973 -0.37149014208555919 2.740259323343416 226 255 225 286.65451 235.892776 6
0.62674313184303465 0.43665596442095106 1.4875633592651432 87 120 130 540.463196 400.121918 6
0.45106975297565821 0.39755149027850034 1.7026615992340957 193 182 255 489.701477 382.206024 6
0.55392564026256064 0.526622904263637 2.3380266889223353 181 255 143 474.771545 376.23407 6
-0.34259839380973878 0.4814427981829415 2.6152622432533672 236 255 235 334.430267 355.332153 6
-0.42116622461350439 0.33008487919764323 0.87721967013735513 174 165 255 197.074982 432.967773 6
-1.29056920772602 0.15180871449669384 3.2945154048428416 104 122 142 232.906799 304.570435 6
-1.0411474428254834 0.4361384838953874 1.5714386603577397 255 88 95 131.383316 400.121918 6
-1.1620473449478159 0.4166119306532044 1.4692606762378402 208 216 208 80.621582 397.135956 6
-1.4410887965945491 0.36417588067477796 2.8194559452927583 227 227 255 185.131042 340.402252 6
-1.861539602879716 0.31607627078568112 3.1861253935245299 175 255 167 158.257187 331.444275 6
-0.33928023179554878 0.46252582797343766 0.88495137416663527 95 87 255 241.864746 489.701477 6
-1.4535710219957849 -1.0391467823056235 2.7524741535306605 227 255 204 182.145065 140.341278 6
0.67873057630838374 -0.63416070009149894 3.8373558519700852 255 235 238 451.480896 225.740448 7
1.6118241238866347 -0.78423275315014251 2.2860248031340076 255 202 216 655.722229 157.659988 7
-1.4773450575999814 -0.20624642803278803 3.0102679330866629 245 246 255 197.074982 261.572266 7
-1.5682254686508998 -0.29777667320371326 2.7868449003995859 241 243 245 164.826355 247.239532 7
-0.2377356988198398 0.46842439485536208 1.2464612997544111 106 140 145 308.153625 437.148163 7
-1.0885020159534142 -1.1014967921654537 4.1356090449088621 255 226 228 279.488159 182.742264 7
-0.87987825315825541 -0.69386019803016263 2.7853880495297876 227 227 255 261.572266 193.491806 7
0.6306518545013442 -0.56383975194933833 4.1116980015892812 240 242 245 444.314514 236.48999 7
1.4542205943130471 -0.13290123280374161 4.3582849160923658 165 172 182 512.394958 283.07135 7
1.5705330959963524 -0.14114773747084061 4.728695087817627 247 248 255 505.228607 275.904999 7
0.36483270968302217 0.34371775728579407 1.4651944283710083 141 155 178 472.97998 376.23407 7
0.71216499990146298 0.41471119757888736 1.29437471735661 61 255 48 598.391357 408.482697 7
-0.34630720219737054 0.48675536089121269 1.2141520554356502 255 79 112 275.904999 444.314514 7
-0.33217661137608712 0.45338283742772501 1.0036331090792228 130 134 255 257.989075 458.647247 7
-0.40057119782387129 0.3022965958793109 1.9887027428630359 255 183 191 311.736786 343.985443 7
-0.019816210270898971 0.12882351400907976 4.9832732653030609 105 125 150 376.23407 297.404083 7
-0.95614911237115496 0.30922309613329035 3.8771378934646448 146 255 128 286.654541 311.736786 7
1.2121204501982663 -0.72732344672342819 2.5963584756802893 234 255 210 566.1427 179.159088 7
-1.025639605386643 -2.0605097000566834 5.843980277160064 228 255 194 318.903168 154.076813 7
-1.4933154483418307 -2.2160329001329955 6.1368524554588904 226 255 223 290.237701 146.910446 7
-0.41982650240475383 0.023807359892225016 5.7470607610269733 139 255 98 354.734985 283.07135 7
