ply
format ascii 1.0
comment Written with hapPLY (https://github.com/nmwsharp/happly)
element vertex 152
property double x
property double y
property double z
property uchar red
property uchar green
property uchar blue
property float ix
property float iy
property uchar octave
end_header
1.2974598462264921 0.50738292122563511 2.0619276704675551 118 122 117 628 382 0
-0.70345554286648326 -1.8124559398596536 4.7390676082561365 206 226 255 325 141 0
-1.2297670420615212 -1.091463087425413 2.3316285168047264 255 190 204 183.600006 109.200005 1
1.6064199965231616 -0.70141698128510566 1.7341957197257543 185 205 224 740.400024 133.200012 1
-0.81507059896539324 0.48527223400712349 1.0054515413924467 9 255 13 70.8000031 475.200012 1
1.2829585460942938 0.49799212702678924 2.0461885962949062 255 119 122 627.600037 381.600006 1
1.3323908512314506 -0.57946830275211159 2.2214183598149528 255 232 235 615.600037 186 1
1.4534959927551248 -0.46706443295836542 2.0410942943612955 201 211 255 657.600037 201.600006 1
-1.2837531637503337 -0.16446303118875172 2.405402134950958 245 246 255 177.600006 261.600006 1
-0.63222959061371053 -0.39703991260555371 2.6736391751956559 243 255 229 294 230.400009 1
-1.5134847031707319 -0.28809076217230856 2.5024847179677683 255 240 242 151.200012 243.600006 1
-0.82985528203987791 -2.0549094236451326 5.4429115815554532 206 226 255 325.200012 141.600006 1
-1.4234091749451721 -1.3721185434557788 2.3425708075744995 255 152 178 151.200012 63.6000023 1
-1.4569131416217669 -1.0351198238216095 2.4291655369248466 224 231 255 153.600006 123.600006 1
1.7301728235734293 -0.61856598868600932 4.8784093630445664 238 241 245 520.800049 241.200012 1
0.26869138494452205 -0.69027923192787732 4.7713285100648921 169 255 160 406.080017 231.840012 2
0.41979775923371609 0.51171211924508508 0.96368202017959925 139 255 114 550.080017 492.480011 2
-0.86895293402582352 0.35797826154985185 1.7909025660036719 233 255 232 198.720001 361.440002 2
0.8214190449231803 0.48994478086030513 1.2640960300779009 255 217 218 635.040039 436.320007 2
0.38914680168716465 0.47114219502650329 0.92616181546849141 255 117 131 547.200012 483.840027 2
0.80053167748039722 0.41913279211024729 3.117672591458148 189 255 198 482.400024 339.840027 2
-0.73814154552074696 -0.57750062518276157 2.4012388973757499 232 255 232 266.400024 195.840012 2
-1.2521042996182619 -0.70837291705975181 2.7692434523592215 255 86 111 211.680008 190.080002 2
-1.3481991501456863 -0.14047833222061923 3.2473402057444929 118 255 72 226.080002 273.600006 2
-0.5819763003074665 -0.36705530485555959 2.4731557158348734 236 243 255 293.76001 230.400009 2
-1.4539455299015103 -0.57183001156030611 2.4015269312221155 255 234 236 151.200012 195.840012 2
-1.281652950715102 -0.2765512894000593 2.3912249369276695 245 255 240 178.560013 243.360016 2
-1.2705540994370379 -1.2536612157146496 2.3897431701640892 159 185 213 180 87.840004 2
-1.2948574861706907 -1.4791787901045503 2.4311800835498096 168 205 255 181.440002 54.7200012 2
-1.4046481369992616 -1.4323122840453779 2.3258636855184047 255 134 167 151.200012 51.840004 2
-1.2753987259134822 -1.0374866082109253 2.432880930617964 210 224 255 181.440002 123.840004 2
-1.4327743984878873 -1.0163528610106269 2.3750876308025033 220 223 231 152.639999 123.840004 2
0.71108838319891787 0.5261932840642618 1.0387711696526001 44 66 69 648 483.840027 2
1.0769157005476799 0.41087483493709759 1.9040414530553456 101 102 255 601.344055 374.976044 3
0.23111678605194408 0.43089237289162052 1.8154875029566222 194 196 199 432.000031 378.432037 3
0.42073985173543504 0.50938522021348875 0.96107004664941398 131 152 255 549.504028 492.480042 3
-1.0943058044890495 0.36127382086473997 2.077230919172278 222 223 224 184.896011 352.512024 3
-1.3344946903332819 0.28787611402722868 2.6372573292445916 144 255 135 190.080017 326.592041 3
-1.2588439319004312 0.17183369012121671 3.252460467045732 55 73 98 236.736023 307.584015 3
-1.2137430330447416 0.33504132645943319 2.0087986523726213 218 219 255 153.792007 352.512024 3
-1.5155984479162647 0.2318831340647303 2.4072313556169029 255 124 125 139.968018 328.320038 3
-1.3495046078731843 0.29583628540465168 3.1126347662712508 255 100 118 219.456024 321.40802 3
-0.5229042697631634 0.32507086907050253 2.481202458140304 221 222 223 300.672028 338.688019 3
-0.7620909501208164 -0.59283433249740747 2.4591162066967867 232 255 232 266.11203 195.264023 3
-1.2522448161799677 -0.70936437723614898 2.357953012908621 255 217 224 179.712021 171.072021 3
-1.4819615392964574 -0.66423771905210116 2.457436730629579 233 235 239 152.064011 183.168015 3
-0.82166944151993127 -2.0105776397273529 5.3297202955259007 184 206 226 324.864044 139.968018 3
-1.2333271133577455 -1.4828829528993392 2.3231644936446751 255 128 163 179.712021 43.2000046 3
-1.4669714393574025 -0.97643751692684266 2.4202036113225276 211 219 228 152.064011 129.600006 3
1.5016498025289438 -0.85919239879456955 2.095922714414078 194 209 226 656.640076 133.056015 3
-1.2472406195532475 0.36836991768253258 2.1158247298379602 186 196 255 157.248016 355.968048 3
0.99575633895352733 0.21798939660637562 2.8670698716067404 164 255 143 514.944031 316.22403 3
0.7479327202612156 -0.60659283024114319 3.5369265018236913 236 239 243 464.832031 221.184021 3
0.86746092768500049 0.46298453901341069 3.4029190865226315 255 196 199 483.148865 340.070435 4
0.40781354739763098 0.4965428547663514 0.91912506579471476 255 102 124 551.577698 493.516876 4
0.18136802303106414 0.28495047477421659 1.6762246873851412 255 85 105 427.161652 354.585663 4
0.75490919500567277 -0.52563696875819166 3.6474345456701247 245 245 247 460.339264 234.316833 4
1.56398617412539 -0.29502172773988683 1.9079975843204027 244 255 239 698.803284 228.096039 4
-0.71168964430813642 -0.4929349792468436 2.3677996211192891 232 232 255 265.420837 211.507233 4
-0.78165625588471244 -1.4293507331185609 4.6679230615191072 218 232 255 317.260834 170.035217 4
-1.4638912636823909 -0.43406364660829722 3.3721577180313078 255 86 104 215.654434 240.537628 4
-1.4414346283218511 -0.27844149394794049 2.3861584559559947 242 245 255 153.446426 242.611237 4
-1.2442022498359693 -1.4461464391895955 2.3410877017484064 134 167 204 180.403229 53.9136086 4
-1.4706576776661238 -1.4163827916877081 2.4327622090901486 255 153 179 151.372818 64.2816086 4
-1.4059030499785474 -0.99626121243821553 2.3363800323695028 224 231 255 153.446426 124.416016 4
0.76956866998533702 -0.51432655228742408 2.8032719656868323 237 243 255 485.222473 217.728027 4
-0.032849001199882544 0.49018496087163738 0.8005991624234805 84 111 108 364.953644 526.694458 4
-0.30532514055722904 0.34744657210774255 0.55236244706399229 206 207 205 176.256027 528.768066 4
-0.95980051309591685 0.47516571297363308 2.9492616630003052 255 125 133 255.052841 352.512054 4
-2.976999357348534 0.42299138196571545 4.3323627085259266 200 110 112 116.121613 325.555237 4
-1.3394481302478534 0.42748171000100743 2.5631150090991741 206 255 180 182.476822 356.659241 4
0.20911567368979278 0.34632272628684369 0.72778523316546373 255 222 223 491.443268 470.707275 4
1.1133314872774989 0.34474773663215652 2.0150293563972608 51 62 255 593.049683 354.585663 4
1.2367819360372829 0.4164820494353062 1.7597149143430735 255 163 169 655.25769 379.468842 4
0.6561720025229999 0.30926283674015154 1.6816029765936884 44 51 61 532.915283 354.585663 4
-1.1470647751165246 -1.9548161365611301 5.0134603103420563 224 255 181 294.451233 136.85762 4
-0.39708920862830732 0.4121671517270068 2.2431262911899958 219 222 225 316.016693 355.829803 5
-0.82250357453213985 -0.12285082286414775 2.4790911927515986 196 198 200 256.296997 268.738586 5
-1.4880216805231359 0.22573033496074679 2.3429706351415818 130 117 126 136.85762 328.458282 5
-0.53084167583778674 0.31489114867363344 2.512270238175522 255 230 231 303.575073 338.41156 5
-1.2153454757074136 0.16995146337847605 3.1192993501945043 53 72 97 236.390427 308.551727 5
-0.17064864803395086 -0.024668601194720807 6.7088806362176747 120 140 255 373.248047 283.668518 5
0.86629322745913795 -0.61650452778641773 3.2265858476822027 237 242 255 485.222473 216.483871 5
-0.78448318289335095 -1.9139309889874134 5.1060546782990075 206 226 255 325.969971 141.834259 5
-1.1907992671666636 -0.14635405412129163 2.3924712794767871 161 255 136 194.088989 263.761963 5
-1.2867207733694497 -0.27686412344411893 2.3956059264306639 255 240 242 179.159058 243.855392 5
0.70545124597780817 0.52149417560453426 1.0291959998499114 67 72 255 649.451599 485.222473 5
-0.79776054144030795 -1.4255109527782976 4.6381620193420101 232 255 203 318.505005 169.20578 5
0.45821630081061038 0.50092899475913666 0.96890987522793814 126 255 84 562.360413 482.734161 5
-0.1729578629056634 0.43827077795484581 0.69624948419776933 212 212 211 288.645172 525.035583 5
-0.56964611251666986 -0.488678029199338 2.3777696837796096 232 240 255 293.621796 209.018906 5
-0.81948752236804934 -0.94532186247044181 3.259328679529748 230 255 225 286.15683 174.182419 5
0.46132899215002721 -0.60585624444408193 3.9647158891318774 255 131 153 423.014465 228.925476 5
-1.2905778460394797 -0.80461695488373608 2.409969744588202 255 210 220 179.159058 159.252502 5
-1.4498851037479881 -1.0340991582917067 2.4189511824954604 255 219 223 151.787537 124.416016 5
-0.093089599043659321 0.51638468645079538 0.90285180998791414 230 227 255 345.876526 507.61734 5
-0.079326315659745905 0.47438650730827014 0.83586373488021071 232 229 255 345.876526 502.640717 5
1.4586056375587648 -0.80813022665552592 2.0603430000445226 227 255 196 654.428223 139.345947 5
-1.5427893213086046 -0.53033217318774151 2.5714042334981606 255 235 237 151.787537 206.530594 5
-1.1747257406883582 0.37106037422880955 2.2230216231710109 156 156 255 181.647385 350.85318 5
-1.2284770005606913 0.35768280952946746 2.0698229460783253 255 180 187 159.252502 355.829803 5
0.83329724033122277 0.48678501658987738 1.23094929032567 218 218 255 649.451599 437.944397 5
1.1988951555376153 0.45729823531945113 1.8823041063846992 129 126 255 629.545044 380.713013 5
0.21348207924664986 0.36476012974199656 0.78368718528363868 222 222 221 492.687439 470.292542 5
-0.58202954005074936 -0.36151882546842534 2.4678777639061553 236 243 255 293.621796 231.413788 5
0.18631560234996858 0.39348642209890161 0.82372637063574805 255 166 173 467.80423 467.80423 5
-1.4828026714206244 0.14869837517593351 2.324483193557811 255 207 130 139.345947 316.016693 5
-0.59332805978947789 0.17991214275554068 2.5802647078117218 164 178 197 296.110107 316.016693 5
0.86226802870421482 0.36358225632841334 2.4586266494925355 255 176 181 515.082336 343.388214 5
16.117933250373646 -18.843992157096135 33.300538847589401 255 140 174 567.337036 72.161293 5
-1.4599769189502458 -1.4152535211445016 2.4171729802267041 255 151 178 151.787537 62.2080078 5
-1.0235682176819152 -1.7409141789644766 4.4176268251119719 182 205 225 296.110107 139.345947 5
1.0038275853452674 -0.74862683386520001 3.3738192315358813 239 255 225 498.659424 197.074982 6
27.669631738720248 -28.580073642649033 73.201995955351521 199 212 227 528.519287 137.355286 6
0.67541461758890375 0.50489878714421743 0.87539160580116304 78 101 255 677.818481 510.603363 6
-0.86125485373384558 -1.4876321452585617 4.8239707516869279 204 219 232 316.514374 170.201126 6
-1.1966368220764063 -0.16128572117674006 2.4078095609311263 255 201 206 191.103012 262.766632 6
0.7880916900331465 0.47624455259835408 1.2031541692659462 218 217 255 633.028748 435.953735 6
-1.8729750427382483 0.4741346873894996 2.2479138955157123 126 134 255 65.691658 367.276093 6
-0.83453830750553371 -0.65022428101664864 3.2791548684601226 223 232 240 292.626495 209.018921 6
-1.0004934710970823 -1.1061003789067214 3.9195966738451968 255 226 227 283.668549 176.173096 6
0.1677685068259871 -0.61534478939969017 5.4414145470118536 71 75 255 397.135956 244.850739 6
-1.25607194206995 0.37111122237488881 2.1248182339660504 189 199 255 161.243164 355.332153 6
1.8484223650655394 -0.12530385209801528 4.9420781100460136 158 255 121 534.491211 280.682556 6
1.7057322277155582 -0.64047467379271283 4.9297400001832221 241 245 255 513.589355 238.878769 6
-0.53084167583778674 0.31489114867363344 2.512270238175522 232 233 233 304.570435 337.41626 6
-1.2545222241253202 0.16775179038238319 3.1870756888146836 255 64 82 235.892776 307.556396 6
-0.12074795301711516 0.49914351233034215 1.6927324501044345 255 134 149 355.332153 403.10791 6
0.43034898687492462 0.52973583750046405 0.99163102089463528 89 117 126 552.407166 492.687439 6
0.75786886539204257 -0.52611534533692139 3.6362505755031549 245 255 241 462.827606 226.93483 6
-1.1323245628763643 -1.9152702901193188 4.9606999702639953 255 183 205 295.612457 140.341278 6
-0.42764122166717078 0.46493699297498547 1.7092480017820306 139 255 88 290.237701 390.566803 7
-0.93140503804874442 0.45174032440125278 2.8609118930599111 72 70 255 261.572266 351.151794 7
-0.9735072857508924 0.36617854324014321 4.0277242059084566 187 205 255 293.820892 318.903168 7
-1.1295543771909609 0.17297021538140389 2.8789298544952322 74 93 115 232.906799 308.153625 7
-0.74885536437526135 -0.12381466600953608 2.2664973891075459 194 255 184 254.405899 268.738617 7
-0.57970186718992212 -0.34911226904670078 2.4311005501781087 243 255 231 290.237701 232.906799 7
-1.299985814543863 0.38924077593855333 2.4540561857460164 255 188 189 179.159088 351.151794 7
0.93921571041737173 0.4753134024838046 2.1791731757530979 96 103 119 548.226807 369.067719 7
0.081909339118897639 0.1826505151086022 5.0485487001770109 143 255 100 386.983612 300.987244 7
-1.7104102926091209 0.3406424854113923 2.809268730959392 194 255 218 150.493622 340.402252 7
-1.3947558901184878 0.19109330166723246 2.8934251003009051 89 100 119 200.658173 315.319977 7
0.69332316090862778 0.51954069443768425 1.0161478917848457 33 58 56 644.972717 483.729523 7
0.39940910359161186 0.47715336806591324 0.88767270926789354 255 97 121 551.809998 494.479065 7
-0.078480597465121926 0.46629560103077228 0.81576704324182581 255 227 231 343.985443 505.228607 7
1.4521154960854945 -0.79949940175155876 2.0552018626886395 195 210 227 652.139038 139.74408 7
0.76267943688736262 -0.52413728415138006 3.7582655788256911 247 255 245 462.230438 232.906799 7
0.88403309600334556 -0.60208991699625325 3.2907006448669165 255 234 237 483.729523 218.574081 7
-1.2846650414552139 -0.99695297326967847 2.3742911322350513 255 207 215 175.575897 125.411354 7
-0.89911616443905551 -2.0231685250465321 5.5469882939020181 226 255 186 322.486359 143.327271 7
-0.81471121227369858 -1.4216841380041478 3.6240653333229718 205 225 255 293.820892 139.74408 7
-1.4183959620939102 -0.2683457178924219 2.3841316153385552 245 255 241 154.076813 247.239532 7
