ply
format ascii 1.0
comment Written with hapPLY (https://github.com/nmwsharp/happly)
element vertex 155
property double x
property double y
property double z
property uchar red
property uchar green
property uchar blue
property float ix
property float iy
property uchar octave
end_header
-1.0495489163547225 0.0096465514031160438 1.8883350084550732 107 122 145 172 289 0
1.0274529664619696 0.56801712925953796 1.1143935593188723 255 64 69 739 484 0
-0.05026961059704349 -0.017064860088991746 6.2222002842753366 141 255 99 382 287 0
-1.1760885798663354 -1.4677424307821181 2.0985117147062415 90 124 255 169 19 0
1.5752315672275916 -0.82117958540625036 1.6909705090894787 208 223 255 741.600037 99.6000061 1
1.0135269421093871 0.55867430814728514 1.0942319465207819 255 59 64 739.200012 483.600006 1
1.3747067363727936 0.51572547821705994 1.6508542862777236 255 173 173 703.200012 409.200012 1
-0.4588366710661016 -0.33946157996689624 2.0750120500151987 236 243 255 297.600006 223.200012 1
-1.3184867426590587 -0.28655131657117722 2.2875703245515098 255 202 207 163.200012 241.200012 1
-1.1614239461584219 -1.0087630288673928 2.0566682222703943 106 132 255 169.200012 99.6000061 1
-1.4992589960510339 -1.1054689363874199 2.2845155171498339 224 255 206 130.800003 99.6000061 1
0.56749595103664841 -0.64992263935012096 3.9719135115891913 255 79 123 439.200012 225.600006 1
-0.54448054625802822 0.40066855390414097 2.0264056147810772 255 178 181 279.600006 363.600006 1
0.18029511117961339 0.30187615990953121 5.8181352594854969 157 255 111 394.800018 309.600006 1
-1.1804871444941929 0.30821592365683309 2.1949287330503457 111 255 83 178.560013 339.840027 2
-1.3422606024409811 -0.54818141114244923 2.036073789728631 236 238 241 132.480011 184.320007 2
-1.1474191756038188 0.18976528481190086 2.8878415249905975 255 85 89 231.840012 313.920013 2
0.87312811964788828 0.4127069980518544 2.977149438076407 79 255 75 498.240021 339.840027 2
-1.2913413771978997 0.2861364256284003 2.1901650808872306 255 165 170 155.520004 336.960022 2
-0.63086751459342416 -0.5545631338749466 2.0427973580551697 232 255 230 262.080017 184.320007 2
-0.47516593615480263 -0.34522117614480929 2.1146728490610784 228 236 243 296.640015 223.200012 2
-1.1851890161640171 -0.14346207026440316 2.0615679732864196 213 255 235 162.720001 259.200012 2
-1.3713951064843277 -0.21163899977554573 2.0944140045990114 240 242 245 132.480011 247.680008 2
-0.71811408197228088 -2.0328073667761362 5.0423897784490945 202 224 255 329.76001 131.040009 2
-1.1614845894905526 -1.2970116490238377 2.0383721695712702 104 138 255 165.600006 44.6400032 2
-1.3454895703625858 -1.3755495607326089 2.033312273708213 163 200 255 129.600006 30.2400017 2
-1.1964131450405699 -0.79725682986060975 2.1280025797877813 124 150 255 165.600006 142.560013 2
-1.1520572561397153 -0.94021423157608353 2.0041825176475108 130 154 255 165.600006 109.440002 2
-1.3269116119017252 -0.99362986033174483 2.0181727384350778 213 224 255 129.600006 99.3600006 2
0.3758524638259142 -0.67269621310338779 4.4419072835243014 170 255 165 414.720032 228.960007 2
0.90394883878127363 -0.47763524654431522 3.2412378861537503 255 239 241 491.040009 231.840012 2
1.6189814699377685 -0.84354221399001073 1.7692870845042803 203 222 255 737.280029 105.120003 2
-0.30246175489418992 0.51621382387175752 2.1179566722221299 234 235 236 328.320007 381.600006 2
0.46682374349482614 0.52335611638211443 1.4020120707129502 130 144 167 512.640015 432.000031 2
1.3544017437562439 0.50525085477866671 1.6225531934354169 158 255 166 702.720032 408.960022 2
-1.1848118350208994 0.33080091319941413 2.4556302028570123 89 255 61 202.176025 340.416046 3
-0.4404240773783199 0.40535904227360026 1.9716674941933636 115 123 134 300.672028 366.336029 3
-1.3579087257536675 -0.77760263530875695 2.0500381901828142 220 230 255 129.600006 141.696014 3
1.1119650001834089 0.49873735592313861 2.5539940869176281 78 82 88 552.960083 364.608032 3
-0.60686243250508198 -1.0032218914228401 4.5328043864454433 241 255 233 330.048035 203.904022 3
-0.84936983457436765 0.31689286451676912 1.711630561859379 28 13 255 193.536011 361.152039 3
-1.0604774222746221 0.35452634646658043 1.9589003496394501 16 255 34 174.528015 355.968048 3
-1.1474191756038188 0.18976528481190086 2.8878415249905975 255 86 91 231.552017 312.768036 3
-0.65604503406239445 -0.49544393622867589 2.1117656472809347 231 232 232 260.92804 198.720016 3
-0.68836889630574083 -1.4261386571967467 4.347286793179336 255 201 217 323.136017 162.432022 3
-0.77293575328470876 -0.2536389881082029 1.7061162204513698 134 255 100 210.816025 233.280029 3
-0.31930685339655929 -0.033442350405635174 3.6194040975728798 122 145 255 349.05603 286.848022 3
-1.1167585914883671 -0.60649952187503076 1.951656592277057 129 153 255 165.888016 171.072021 3
-1.1768337446974253 -0.25476829211590701 2.0393856207960286 215 255 237 162.432022 240.192017 3
-1.39620975551657 -0.2626853016986061 2.1358135605443276 243 245 255 133.056015 240.192017 3
-0.70627077511005787 -2.007828091397633 4.9652504843360212 179 202 224 328.320038 131.328018 3
-0.99376195514421228 -1.9110155007636043 4.5025495235369419 222 255 173 298.944031 124.416016 3
-1.1159597911748551 -1.1250325129193106 1.9583347314450132 114 141 255 165.888016 69.1200104 3
-1.1715077957115576 -1.2347521567942188 2.0431044317943554 255 92 112 167.616013 57.0240059 3
-1.1640016677173346 -0.99789312075263581 2.0362576495865619 255 101 117 167.616013 100.224007 3
1.4210140917433389 -0.8328385936544549 1.847665808314455 193 207 224 680.832092 114.048012 3
-1.0549786385313324 0.4694759912122824 1.29984695423824 103 255 51 74.3040085 428.544037 3
0.46682374349482614 0.52335611638211443 1.4020120707129502 255 131 145 511.488037 432.000031 3
1.2385627495783424 0.36208327542267543 1.6966478350738892 255 79 87 663.552063 371.52005 3
1.0050465776070192 -0.43683819964653781 3.3615701810173366 242 245 255 501.811279 238.464035 4
0.93049183064759555 -0.50013610617726534 3.357255515245062 242 245 255 489.369659 232.243225 4
-0.42751765889753468 0.34902597042210437 2.1581371838662524 207 206 208 308.966431 350.438446 4
1.6817265638830554 0.13374611915563536 1.8970292390607315 255 115 124 723.686523 315.187256 4
-1.1474191756038188 0.18976528481190086 2.8878415249905975 106 109 125 232.243225 315.187256 4
-0.50351532846401303 -0.25961927538436924 2.1840875066541683 245 255 234 294.451233 242.611237 4
-1.2101366274917251 -0.3979052093202684 2.67907109952806 255 94 112 211.507233 234.316833 4
-1.378400224462923 -0.40768946234005521 2.0942747192815498 242 255 236 130.636826 213.580826 4
-1.1260142761453005 -0.30888593904674433 1.9748533842866594 141 161 255 165.888031 230.169632 4
-1.3281823412984917 -0.28979217595756712 2.307940857161646 239 242 255 161.740829 240.537628 4
-0.92002322572854034 -1.7270573544004417 4.0646038662533073 223 255 174 298.59845 126.489616 4
-1.1298547776484891 -0.68049458674216934 1.9709249792504751 255 100 119 167.961624 155.52002 4
-1.3269116119017252 -0.99362986033174483 2.0181727384350778 202 211 223 132.710419 99.532814 4
0.3742568601358387 -0.67724596398778558 4.406835009483447 169 255 164 414.720062 230.169632 4
1.4912502963300696 -0.71241003600640274 1.9555812280036831 234 255 222 678.067322 145.152023 4
-1.2744757062860437 0.30786966922562159 2.3775666469720793 78 90 100 176.256027 340.070435 4
-1.1063684423478066 0.35842056775820835 1.6562628279000711 227 228 226 128.563217 371.174438 4
1.0809104091464579 0.42006309218850546 2.498742156720823 255 135 147 551.577698 348.364838 4
0.30284242062238209 0.38409750445164736 1.2074783720543651 190 185 255 481.075256 412.646454 4
-1.2983225331230295 -0.75200861569393174 1.9626826275288671 220 230 255 129.392654 141.834259 5
-0.6622324336929819 0.38761173377699243 1.7565921343483999 178 173 255 233.902115 373.248047 5
-0.28250430100312673 0.39162152375417636 1.7786729842028088 255 209 209 323.481659 373.248047 5
-0.43309175487923612 0.40757826564080057 2.0105486487962319 137 153 255 301.086761 365.783081 5
-0.32102887500396937 -0.019282717824845863 3.5050435369976203 144 255 102 350.85318 286.15683 5
-0.69650280647758045 -0.91061450088533502 2.8265494027169531 231 255 199 286.15683 159.252502 5
-1.0455189413817458 -1.9448164262591594 4.6575392426102669 223 255 174 298.59845 126.904335 5
-1.3511829122802577 -1.0144189070907967 2.0715496506743882 255 204 212 131.880981 99.532814 5
-1.080809734379911 0.47643418435042073 1.3343911931509398 70 102 121 72.161293 420.526154 5
1.5300588660430914 -0.73012834217929723 1.7561467659553958 181 202 223 716.63623 126.904335 5
0.56749595103664841 -0.64992263935012096 3.9719135115891913 255 108 138 435.456055 226.437149 5
0.86152000972654064 -0.60024140057143327 3.2326925577598162 242 255 235 482.734161 216.483871 5
1.1063499709007707 -0.73260279278351947 2.9965793075224676 255 220 229 527.523926 194.088989 5
-0.45913412331924075 -0.46499553353045586 2.0131429035027288 239 255 227 298.59845 199.065628 5
-0.65125531727519848 -0.56925505772739282 2.0944969540747436 232 231 255 261.273651 181.647385 5
-0.6633490319239419 -1.8794663901563806 4.6719503982196553 179 202 224 328.458282 131.880981 5
-1.0846873118059728 -0.12456557492386799 2.0394569274093448 255 88 107 179.159058 263.761963 5
-1.0674831365535824 -0.14870464011597911 1.8354270899608407 236 238 255 161.740829 261.273651 5
-1.376264822106863 -0.41718948608678164 3.0495177852859783 255 93 112 211.507233 233.902115 5
-1.1783764580189384 -0.25423577093643163 2.0389596208888108 239 242 255 161.740829 238.878754 5
-0.72605729427556076 -0.099726627222712583 2.1688017075578219 191 190 192 256.296997 271.226929 5
-0.44358529311368056 0.40529500202363933 1.8101707443970065 255 214 215 291.133484 370.759735 5
-1.1002707255599753 -0.62071684527344118 2.068022413681633 255 69 91 179.159058 171.694107 5
-1.2049243117295689 0.29551040719951838 2.0052406345151579 124 255 105 154.275864 343.388214 5
-0.99758302977112123 0.38528111671235965 1.746292700231884 224 222 255 169.20578 370.759735 5
1.0317553083930706 0.41354450048967001 2.3489018559129615 50 59 77 552.407104 353.341492 5
-1.6522020483396176 0.35447687203100747 3.8691338142993832 41 59 74 216.483871 323.481659 5
1.3491973055832538 0.50331529251065033 1.6199931980665183 138 255 145 706.682983 405.596222 5
1.2072366062790076 0.35950508419877913 1.6575783627603351 56 71 255 661.893188 370.759735 5
-0.68338731004776365 -0.090801611490839929 2.070816290395693 219 220 220 256.794678 268.738617 6
-1.2035966089633567 0.42241871630483435 2.4269486083393126 16 255 28 194.088989 355.332153 6
-0.29133425954390546 0.48150266778377249 2.0625621209521845 187 199 214 328.458313 376.23407 6
-0.42725360839631543 0.4075000177406729 1.9762541431169063 109 114 255 301.584442 367.276093 6
-0.42751765889753468 0.34902597042210437 2.1581371838662524 186 255 215 310.542389 349.360199 6
1.0040246864974043 0.50961947008760089 2.5012567328162714 255 122 142 531.505249 364.290131 6
1.1023592384844878 0.45431941884288202 2.5919545374543649 95 110 255 549.421143 355.332153 6
-1.0995628203337349 0.18823243545846152 2.7457036018417309 104 255 66 226.93483 316.514374 6
-1.0339251431399106 -1.9078535891613244 4.6172604011148826 223 255 176 298.59845 128.397339 6
0.27665305473513624 -0.52772490875439593 4.4844482952650466 184 255 165 406.093903 241.864746 6
-1.3511829122802577 -1.0144189070907967 2.0715496506743882 255 202 211 131.383316 98.5374908 6
-0.3434093445048112 0.51005883726427281 1.4419821164827309 69 92 110 292.626495 426.995789 6
0.59050747038110751 -0.47658394593912201 2.9477804485460819 237 242 255 453.869659 226.93483 6
0.3742568601358387 -0.67724596398778558 4.406835009483447 255 164 174 415.051849 226.93483 6
-0.74560768339049766 -1.4615193995030205 4.4236116904917351 217 231 255 313.528381 161.243164 6
0.84075118234363677 -0.58353224603080456 3.1545448176483957 255 235 238 483.729492 217.976868 6
-0.47499510425058844 -0.33937135974918159 2.1086496739985789 255 229 236 295.612457 226.93483 6
0.72743339503862769 0.50474126290696397 1.2932043475419239 100 117 137 600.182922 438.939728 6
-0.40548366746493913 0.38930756414518658 1.6771099973194969 215 216 255 289.640503 370.262085 6
0.17069906125802148 0.19841641645852068 4.9324261405635452 124 146 255 397.135956 307.556396 6
-0.57330048510076592 -0.16126306541643731 2.2045324571691767 255 159 164 283.668549 259.78067 6
-1.2375485722590276 0.29857363931718839 2.0684467202196659 113 119 134 152.285217 343.388214 6
-1.0751300707133966 0.39427935163492689 1.8836085014657917 255 228 229 167.215134 370.262085 6
0.44507770514833189 0.52310233953997054 1.4141637045416462 255 139 151 507.617371 432.967773 6
-1.2943069622825516 -0.83970894366963433 1.9426153831114372 255 209 218 131.383316 125.411354 6
1.2716629476304786 0.47234863698146884 1.5590456438826008 255 159 159 695.137207 408.482697 7
1.4364050051842687 -0.66915235499358527 1.8279746677976476 227 234 255 677.221313 146.910446 7
-0.68422688129883102 -1.4020774912453002 4.2419647119893265 232 255 201 318.903168 161.243179 7
-0.69912550212161761 -1.9746000451108578 4.8842938994406317 224 255 180 326.069519 132.577713 7
1.8730021727629129 -0.65656514367695273 4.8226896649399666 241 245 255 537.477234 236.48999 7
0.86661859394781315 -0.52055869174044389 3.4011957356285105 241 243 245 480.146332 232.906799 7
-0.67704973279966874 -0.48202273273435192 2.1945014112692052 232 232 255 261.572266 204.241348 7
-0.45639774090403584 -0.46793029379947504 1.9978485787114755 232 239 255 293.820892 200.658173 7
-0.67592893162968393 -0.59127285622529968 2.1790759735113077 232 231 255 261.572266 182.742264 7
-1.8246987535108143 0.49069695405036035 2.69328190399556 218 191 255 121.828178 358.318176 7
-0.71937546031807509 -0.10164282270588176 2.1312013937730434 219 255 218 254.405899 268.738617 7
-1.3769021457587729 -0.19723402278991636 3.2625456399062429 94 255 50 218.574081 268.738617 7
-1.0316195920943105 -0.11965499506706528 1.9590396264186811 255 93 114 179.159088 265.155426 7
-1.4032487260157755 -0.45477074386074434 3.1170439465024247 255 93 113 211.407715 232.906799 7
-0.95055544046358076 0.2679602878714904 2.063921986007931 80 102 118 200.658173 336.819061 7
-1.0957584431177319 0.26522238115814856 2.0239676785032468 255 91 108 175.575897 336.819061 7
-1.0751300707133966 0.39427935163492689 1.8836085014657917 205 205 204 164.826355 369.067719 7
-0.4576703706788785 0.21503479135377307 2.0268244475666695 232 233 255 297.404083 326.069519 7
-1.1201641958473285 0.18386746615252625 2.7719601463104144 83 109 255 225.740448 315.319977 7
-0.086118488693491146 0.49643475856254488 1.7374160858531131 236 236 255 361.901337 397.733154 7
-0.3088879070476398 0.44351816814615275 1.9759823395237679 199 214 255 329.65271 376.23407 7
-1.1778191094970434 -0.97399374278207285 2.0153805947543995 195 214 255 161.243179 100.329086 7
-1.3197410648976424 -0.2463989094617558 2.0408669957756094 241 242 245 132.577713 243.656357 7
