ply
format ascii 1.0
comment Written with hapPLY (https://github.com/nmwsharp/happly)
element vertex 122
property double x
property double y
property double z
property uchar red
property uchar green
property uchar blue
property float ix
property float iy
property uchar octave
end_header
-2.0993366708367667 -1.378462355073498 3.6767699013758359 255 192 203 163 145 0
-2.2372603165054441 -2.3226016052520544 3.6881855250528712 255 101 135 151 47 0
-2.2330097214474955 -0.97655425682252772 3.6123937298540767 226 231 255 145 184 0
-0.54162207929918349 0.33069527039590108 0.69780753965971654 177 177 255 85 472 0
0.086443305384896862 -0.31526429899044772 1.1236624261103583 194 209 224 412 181 0
0.87970764420939285 0.17673558961166652 2.2924854755986588 84 119 141 532 319 0
1.1498347055016738 0.24847052058159455 1.4769459319147589 124 255 93 682 352 0
-2.1491806462716179 -2.2533097633692831 3.5866714911539299 180 255 101 154 46 0
-2.2958908303173842 0.16739875180392527 3.611631583562299 255 223 217 139 304 0
1.2660280367487298 0.41208652101063054 1.3700372444689228 255 80 92 739 403 0
0.42883981221271217 0.28821849412774758 0.45443010785273585 208 255 206 746 532 0
-1.4994349058401948 -0.21908490175228262 3.6851535645973592 175 178 255 229 265 0
1.8092295640517326 0.19881029127175742 4.7152347878397105 97 125 146 532.800049 303.600006 1
-2.1201291634256609 -1.6109745913630911 3.7087297589188633 197 213 255 165.600006 121.200005 1
1.1711259312419677 -0.42129897998360649 3.384590299165819 61 90 255 517.200012 241.200012 1
-2.0451595822289197 -1.1169785936207193 3.6047964724202797 203 212 224 164.400009 169.200012 1
-2.2049465686828382 -2.1530351384044972 3.6562745111718913 129 154 189 152.400009 63.6000023 1
-2.0621689204642628 -2.3403089470559619 3.5800768204055107 178 255 98 162 37.2000008 1
-2.1315016394749806 -2.5133566604654511 3.670348077137001 255 98 131 159.600006 25.2000008 1
1.0741081927060792 -0.76778205594601434 3.2028866522707906 255 204 216 511.200012 195.600006 1
-2.2397238208382388 -1.1228966865735459 3.6244899076853354 255 210 217 147.600006 169.200012 1
-2.1039125207987954 -2.2747368537993835 6.7952907224865235 220 255 189 266.400024 160.800003 1
1.1712342379209484 0.092525193160999636 1.5175434141610471 106 130 255 681.600037 313.200012 1
-1.5800830311935674 -0.69809753414747999 3.7639548895511252 255 66 84 223.200012 217.200012 1
0.56722693325738571 0.22448863221626386 0.63516959988500699 255 197 201 727.200012 423.600006 1
0.20711667014001112 -0.29218350897323186 1.1385581381159251 214 227 255 453.600006 187.200012 1
-1.6102858094768502 -0.19380512052704829 3.7280809294493298 255 47 66 219.600006 267.600006 1
-2.0255286890530493 0.096355643704613358 4.4351973565683718 255 73 92 211.200012 295.200012 1
-1.3112436209340066 -0.56714252137346122 3.544234475383043 255 219 220 243.600006 225.600006 1
-2.1107255366985158 -0.27642107797989329 3.6252057714702275 255 238 239 159.600006 259.200012 1
-2.2580906919197812 -0.37060865819115091 3.6464526163760982 255 233 236 147.600006 249.600006 1
-2.234877589949841 -2.362448149527455 3.6513884429119399 99 133 178 148.800003 39.6000023 1
0.19715465292436718 -0.02354922626144966 1.1232008447600921 255 188 192 451.200012 279.600006 1
-0.53423639315115556 0.30792017501081337 0.68931709133118702 58 87 100 84 459.600006 1
-1.5188677830730488 -0.18501378556647763 3.5437984308711177 50 70 89 220.320007 267.839996 2
-2.410780298820872 0.16759783614818463 3.7428562802927812 228 255 224 138.240005 303.840027 2
-1.904407410759601 -2.0468459870968898 6.176817377666687 219 255 185 266.400024 159.840012 2
-0.50765883339335938 0.42259567736380915 1.9175188055509871 161 255 176 282.240021 372.960022 2
-2.7269834248239473 0.53235312497281206 5.9471862409384126 255 36 43 207.360016 321.120026 2
-1.3636445817707203 -0.70407225068157175 3.9805774940438496 215 217 218 252.000015 217.440002 2
-2.1632981327207732 -0.93125917467544872 3.7595267801129668 223 226 232 164.160004 192.960007 2
-2.2362010467867353 -0.88085243813677572 3.6024741165102845 233 255 224 146.880005 192.960007 2
-2.2664545425045697 -2.2024759982245041 3.7467883225951653 129 154 189 152.639999 63.3600006 2
-2.015636459332514 -1.3370350806306106 3.6775859106098077 217 255 189 174.240005 149.76001 2
-2.3414954909417149 -1.5706670331561228 3.7783260516791408 217 255 196 146.880005 126.720001 2
-2.0996585121517395 -1.5999723026363208 3.667462441235446 195 212 255 165.600006 120.960007 2
1.2684386816244271 -0.078510308428017608 1.3650239581555816 243 255 241 738.720032 264.960022 2
1.1947631899093518 -0.80061591822356926 3.4698966482261877 208 219 230 516.960022 201.600006 2
0.32365506378381448 -0.41311839463290301 1.1554308481741495 255 198 207 491.040009 149.76001 2
0.2929176234831572 -0.52110287852437143 1.1555161287997082 207 255 162 478.080017 115.200005 2
-0.52880583612251297 0.30228154056341688 0.80110673987997116 255 187 188 131.040009 433.440002 2
1.2802427848674034 0.049797859913775624 1.3816208773812073 244 255 235 738.720032 300.960022 2
-1.1995406687844499 -1.6003424210616324 4.9571393027390238 219 255 181 290.304016 164.160019 3
-0.5918367806814393 0.30137003761618708 1.2670772415289502 255 51 81 207.360016 380.160034 3
-0.9597095243733198 0.34797725182624673 1.4560450368673301 133 255 131 134.784012 378.432037 3
-1.5774604616840646 0.076589139962824349 3.4545300997745274 98 117 255 209.088013 295.488037 3
-2.0891408026489877 0.30366145775811387 3.6396380010297058 255 207 210 167.616013 319.680023 3
-2.0999452323098118 -1.092463517635903 3.6509262942130518 203 212 224 164.160019 169.344009 3
-2.2234570994442318 -1.1309709256023219 3.6233749195451082 207 214 224 148.608017 167.616013 3
-2.1754904222189939 -1.8049954208194694 3.6031001850324333 143 166 198 152.064011 95.0400085 3
1.1807316067973113 -0.90742191307319953 3.3118813338728534 210 218 228 520.128052 181.440018 3
1.164216750725535 0.081784908879709392 1.5291201531341232 255 97 107 679.104065 311.040039 3
0.11416817708378968 0.073300416396862675 0.51465829586819312 255 61 66 471.744049 342.144043 3
-1.9537461015831283 -2.0693094686855855 6.296481762981248 207 222 255 265.420837 161.740829 4
-0.67847589882509007 0.096018215437599891 3.8684685287565079 255 72 92 315.187256 296.524841 4
-2.1376071139307706 0.10199306708461764 4.0402978309554367 233 237 243 180.403229 298.59845 4
-2.2234570994442318 -1.1309709256023219 3.6233749195451082 255 211 217 147.225616 170.035217 4
-2.1291616806680218 -0.34865922809093086 3.5038009239491754 236 239 255 149.299225 250.90564 4
-1.942059896762939 -1.8579516534520313 3.5512074317741753 136 161 196 172.108826 87.0912094 4
-2.321842161990554 -1.8354857601682322 3.7537342605677644 255 157 176 147.225616 99.532814 4
0.20251013862501677 -0.25130731797744804 1.134244289002392 229 231 236 452.044861 203.21283 4
0.19523262049692658 -0.2874155598302196 1.1334464000276985 213 221 230 452.044861 190.771225 4
1.0723209812373931 -0.71878331812951834 3.0631542519451815 208 219 230 516.326477 201.139221 4
0.19862118803545348 -0.030803297555434553 1.1473075516408286 213 255 187 454.118469 279.936035 4
0.93758334351098216 -0.2391323136105572 3.0607123900061537 118 163 255 501.811279 261.273651 4
-0.010335190975684472 0.058906434087906773 0.099478049774153088 55 255 50 346.29126 514.252869 4
1.2238148651260188 0.34904274087813547 1.6192537641780442 120 255 86 678.067322 369.100861 4
1.7397862011002168 0.18368244029966246 4.4676091977544656 97 127 148 532.915283 302.745636 4
1.1211578697040641 0.17243274190025287 1.4637661060754394 97 110 131 676.82312 333.434937 5
-2.1497281154440957 -1.1313211232487659 3.7119553999841655 213 224 255 161.740829 171.694107 5
15.096088669472314 -10.805625898634649 24.56754363228578 255 55 98 619.591797 116.951057 5
0.20251013862501677 -0.25130731797744804 1.134244289002392 230 232 236 452.874298 201.553955 5
-2.2097246629800766 -1.8432379862633441 3.6618547511026152 255 137 163 151.787537 92.0678558 5
1.109538104272866 -0.051737961204302421 1.4170802321496374 255 88 103 679.311462 271.226929 5
1.2031137767954956 -0.13225166257122253 1.5776256563193469 50 61 255 681.799805 256.296997 5
1.1885062978695642 -0.78177045694902236 3.4468025314199817 218 230 255 517.570618 201.553955 5
0.10487129332010159 -0.50854893325032569 1.1705088154739522 206 255 155 418.037811 121.927696 5
0.11369461750289789 0.096414343483222156 0.48538391226599797 127 127 129 472.780853 363.294769 5
1.4471294741775313 -0.1376465325726316 3.8006768246728457 185 255 163 530.012207 268.738586 5
0.92814741612594132 -0.24550653883461798 3.0623078326416175 161 255 78 502.640717 258.785309 5
-0.46640704415926049 0.27360042744319291 0.70856513934487675 189 255 189 126.904335 435.456055 5
-1.6077398366267204 -0.20050191540620588 3.7155989671248095 85 255 43 218.972198 266.250275 5
0.068366148275299743 -0.4544210849683088 1.2071755394003711 215 255 174 406.093903 149.299225 6
-2.1606004747183887 -1.1368338978502466 3.7169985831343371 213 224 255 161.243164 170.201126 6
1.1759979673804619 0.079503024325259297 1.5432637525053654 109 132 255 677.818481 310.542389 6
1.1759979673804619 0.079503024325259297 1.5432637525053654 255 101 112 671.846497 310.542389 6
-2.0259405247427944 -1.309946950126363 3.7144900560078593 189 202 218 176.173096 152.285217 6
0.30084366453883959 -0.50854255340568533 1.1599771225715418 255 168 185 483.729492 119.439384 6
-2.3099823080856305 -1.828007990454154 3.7407073517675871 201 255 157 146.313248 98.5374908 6
0.20046010211756615 -0.27321320035045332 1.0800982717362484 231 255 215 450.883667 191.103012 6
1.1642649251703121 -0.060681612983457783 1.5265897594181226 104 119 255 677.818481 271.724609 6
1.1955113113461184 -0.12782465919964153 1.5500017938649588 42 55 66 680.804504 256.794678 6
0.18537820176889841 0.021026747250106573 0.86063952117448972 180 255 192 462.827606 298.59845 6
-1.4596566786042695 -0.70073281682538413 3.5119232841370125 255 71 89 223.948837 214.990891 6
-1.7364167723949686 -1.6856736024432948 6.2695579453995069 223 230 255 277.696564 185.131042 6
-1.6999420613687222 -0.21907816309319522 3.8253543390301754 81 105 255 209.018921 265.752625 6
-2.1224958627654686 -0.26030034511943356 3.8761300580832323 238 241 255 173.187103 259.78067 6
-2.0287637690036324 -0.45374985857024575 4.1988403862835559 119 255 86 194.088989 241.864746 6
1.1541558939066907 0.32016159001547884 1.5065728946020012 122 255 88 674.83252 367.276093 6
1.727121792571142 0.13994631689837578 4.4044679736368106 255 96 125 531.505249 301.584442 6
-2.1724519342870927 0.2261783943259193 4.2424999686157951 126 107 123 188.117035 307.556396 6
-0.89052666390271806 -0.27528189286229132 2.4568244253717841 214 215 215 240.073166 243.656357 7
0.18887038393693512 0.018838977042382576 0.86616819968637571 181 255 194 462.230438 297.404083 7
1.1665346894882471 0.071672568151160215 1.5612309379949145 113 134 255 673.638123 308.153625 7
0.20267702354761485 -0.25434589210981434 1.121077520885684 255 231 233 451.480896 200.658173 7
1.4967731246905405 -0.13547699768746113 4.0104436371381311 187 255 161 526.727722 268.738617 7
1.6731827837430984 0.14725473881733947 4.2960563374882117 134 155 255 533.894043 300.987244 7
-2.3007862114704052 -0.29507209816762958 4.9971823583514974 100 255 64 214.990891 265.155426 7
-2.2287044991587108 -0.28241519700361772 4.3111299160111249 200 255 223 186.325439 257.989075 7
-2.1209328002059955 -0.34862118117381746 3.5204677079448037 239 255 234 150.493622 250.822708 7
-1.4174973581522496 0.203713916445254 2.455534336747049 166 161 255 161.243179 315.319977 7
-2.1117326007738231 -1.0976173584087312 3.6365577858834683 213 224 255 161.243179 171.992722 7
