ply
format ascii 1.0
comment Written with hapPLY (https://github.com/nmwsharp/happly)
element vertex 179
property double x
property double y
property double z
property uchar red
property uchar green
property uchar blue
property float ix
property float iy
property uchar octave
end_header
-2.4503816805089982 -1.0677730850899987 3.5918814207149872 226 229 255 121 172 0
0.74996170461083123 0.32071935834636994 0.98813982094934105 195 198 200 676 412 0
1.4018848272405258 -0.1753136490652768 5.1242274821462077 108 255 42 490 274 0
0.84074126580022424 -0.18099202645089546 3.5051810164526107 101 255 28 478 268 0
0.20858663570163299 -0.65443194573187802 3.5241108086579267 95 124 255 409 217 0
-2.3715918704977041 -0.90022374793152493 3.4879459906606121 227 255 218 122 187 0
-0.17917136252149102 0.14380799730435306 1.0671369458683555 255 76 89 319 340 0
0.67595863754567465 -0.68147251047840252 3.5069555389245126 28 71 105 460 214 0
0.81110703523596728 -0.14896353895820036 0.87638666754297934 255 228 230 739 223 0
-0.10534663068775796 0.39892505583139171 0.88294778322548695 255 83 95 339 460 0
-2.681546478639762 -0.30865950048573232 4.08486279419688 234 237 255 133 259 0
0.79654768959343936 -0.063665009052385854 0.93190910907929214 237 238 240 712 262 0
0.81024711405072991 0.25539891173635482 0.85882239115846903 86 100 121 748 403 0
-0.26229859311859238 -0.53199256821075114 1.3557858685483162 201 255 142 310 136 0
0.67559193396160733 -0.42918850616746596 3.504732783670617 16 79 118 460 241 0
0.62421039806259548 0.40122109397563421 1.3812554201821139 74 91 123 556 400 0
-2.5109520835847996 -1.0921851405459269 3.6865756511425642 225 228 255 121.200005 171.600006 1
-2.3592944849886797 -2.1608093397744641 3.4965949503579568 170 255 92 122.400002 51.6000023 1
-0.086941289881343975 0.26983579279625186 1.0654624806560948 255 164 178 355.200012 386.400024 1
-0.2703627613167473 0.031318865786977686 0.6659095831460462 203 204 255 229.200012 307.200012 1
-0.2414634322899667 0.26727413160266955 0.43963346736313835 255 170 176 171.600006 519.600037 1
1.2500749236700472 -0.17357571302078084 4.4802944278792243 78 102 255 489.600006 273.600006 1
0.86310456157842841 -0.18502829690278905 3.6013066206946065 75 104 255 477.600006 267.600006 1
0.75876408495371739 -0.14596951685149362 1.0249610612344964 236 255 230 666 231.600006 1
0.74317515119044741 0.17828024483666019 0.93113117839692905 81 98 125 688.800049 361.200012 1
0.87433891821367515 0.15627122452507081 1.5353986856933828 255 48 60 603.600037 327.600006 1
-0.24803064326363644 0.13313008105070354 0.38339162992223674 255 176 182 135.600006 422.400024 1
1.5334551711250366 0.18463683006281234 5.3054046710758049 100 133 138 496.800018 303.600006 1
-0.02675382223087186 -0.36557384958214667 1.3731003308233389 255 183 201 375.600006 184.800003 1
-2.5027737665516172 -0.36694570900934353 3.6647187345379955 232 236 255 121.200005 249.600006 1
-0.25988834415603612 -0.53007540445020862 1.3468850699181563 169 200 255 309.600006 135.600006 1
-2.5835994383818859 -2.1580320005036762 3.8461895274676716 177 255 106 126.000008 72 1
0.7780189990667209 -0.15178728558573978 1.6024336525331511 255 69 81 567.600037 252.000015 1
0.80153086539821294 -0.079975681869571019 0.86615754214351093 255 235 236 739.200012 253.200012 1
0.80800172929516123 -0.14641190616287308 1.7504819267819378 51 255 26 562.800049 255.600006 1
-0.27106131357306396 0.32110175559645082 0.66605266258064044 122 120 255 229.200012 475.200012 1
-0.19160565193616019 0.41210217432535012 1.0032247835116459 69 90 255 309.600006 445.200012 1
-0.24890254785684962 0.16124810926202351 0.45295880593218918 255 98 118 171.600006 424.800018 1
-0.18618746379761086 0.14409552889020319 1.0753629439550978 255 77 90 319.200012 339.600006 1
0.54134053523567538 0.41869882881538656 0.65461149730445145 255 55 66 703.200012 532.800049 1
0.029460451736610771 0.38493981252328852 0.55711695187429666 175 176 255 405.600006 552 1
0.62418134362046152 0.39960203550496592 1.3903220881956093 255 70 88 555.600037 399.600006 1
0.68452579919925194 0.41054607799017212 0.74695010300315223 255 79 81 735.840027 501.120026 2
0.74643285147909932 0.39532976718264806 0.94261143111446333 106 118 139 688.320007 447.840027 2
0.0078855291211459844 0.24671577656410637 1.3216559141906139 180 184 255 385.920013 362.880005 2
0.22537683077511378 0.19357908245920455 0.72585724022325759 158 255 129 502.560028 390.240021 2
1.3710590375598009 0.17087134906007395 4.6651317882044667 100 133 138 496.800018 303.840027 2
-0.19073010258254575 -0.21936248714760356 1.2705369890666169 38 103 131 328.320007 223.200012 2
-2.6197653284318467 -1.1906557313636728 4.044583945552934 255 218 221 135.360001 177.12001 2
-2.6420612504622651 -0.38807429572938623 3.8592392295289866 229 232 236 120.960007 250.560013 2
-0.264176521429345 -0.53470147280471692 1.3544381548310729 169 200 255 309.600006 135.360001 2
-2.2673251611550933 -1.2819030844165398 3.6839802169219662 213 255 185 146.880005 154.080002 2
-2.6074076784284901 -1.8489288157122539 3.8653013825314395 181 200 255 125.280006 105.120003 2
0.85851282363771619 -0.088809468055007446 1.4992700837565247 255 68 82 603.360046 264.960022 2
0.77518728365230616 -0.14841695639919208 1.0536980261853983 255 231 233 663.840027 234.720016 2
0.33418819455198645 -0.92741130535480198 3.1951211833030055 81 114 255 421.920013 175.680008 2
0.33262838852526244 -0.56502742264914263 3.4802682478348017 46 85 114 420.480011 226.080002 2
0.81543206105291288 -0.14832061438847249 1.7759217724094054 255 34 48 563.040039 256.320007 2
1.3506372568982639 -0.18704581161468414 4.9435000053398559 78 102 255 489.600006 273.600006 2
-0.10648058317542841 0.39961098183721067 0.88188994844486568 114 255 81 338.400024 460.800018 2
0.89394949380803768 0.37224007895445832 1.4423429284756146 255 213 214 619.200012 387.360016 2
0.75240802848964339 0.27488090896756867 0.9933630410782468 255 43 46 675.360046 394.560028 2
0.76364515885878859 0.075979095620376802 1.6484839172666428 46 61 71 560.160034 303.840027 2
0.63841329690826742 0.3445780650650212 1.3891147269354978 67 82 100 560.160034 381.600006 2
0.17611059369075016 0.1788383664237817 0.56591638945587697 139 255 112 502.848053 412.992035 3
0.14801923949477447 -0.24599478082503176 3.6487911976204255 60 90 115 400.896027 260.92804 3
0.76434262728210856 -0.14730718767690945 1.037537965359036 255 232 233 663.552063 235.008026 3
-0.27252394751102826 0.081259373929433526 0.66830725074367325 107 118 139 228.096024 336.960022 3
1.1691224311659614 0.25770516324475379 3.3278652889241962 49 63 82 516.672058 316.22403 3
1.3710590375598009 0.17087134906007395 4.6651317882044667 159 158 255 497.664062 302.400024 3
0.42198878218795238 0.32346986514456916 1.8353527059446899 50 69 255 473.472046 352.512024 3
-2.5302871134240941 -0.93671251692421698 3.936106837759946 228 255 219 138.240021 195.264023 3
-2.3840225996979889 -1.3299789697507753 3.8567426378928218 212 255 185 146.88002 153.792007 3
-2.522215287928566 -1.8108168211190732 3.7580044635875467 198 255 165 126.144012 103.680008 3
0.80800172929516123 -0.14641190616287308 1.7504819267819378 255 32 47 563.328064 255.744019 3
0.20604353627788263 -0.85779877431873752 3.7955284856563298 255 64 110 407.808044 202.176025 3
0.34869325584245381 -0.93125169081491843 3.5275165751373789 94 127 255 421.63205 188.35202 3
1.2445344461250674 -0.17087492514291394 4.5350342778263011 78 102 255 489.024048 273.024017 3
-0.18238548959143275 0.39604373036008389 0.90161399660326824 46 56 82 304.128021 456.192047 3
-0.20792805552294746 0.41326860780082075 0.7848140069552858 255 42 44 283.392029 490.752045 3
-0.16964143948464294 0.004437865938179214 0.92855234046068325 255 99 110 311.040039 292.032013 3
-2.7827988635966365 0.15786154507215416 3.9382107256887724 210 197 207 112.320007 304.128021 3
-0.24812394769941115 0.10905764053753141 0.41484067885409992 190 185 255 153.792007 388.800049 3
0.71408490667548641 0.37950752051138631 0.9640163814207765 255 116 127 667.008057 435.456055 3
0.54084355902542069 0.41853529069735329 0.65524715590239457 255 55 66 703.296082 532.22406 3
0.11491184575941993 0.21684803531485353 1.7345599179410474 183 185 255 409.536041 333.504028 3
0.61573245216842165 0.38879576912942237 1.3586902621106063 119 255 73 554.688049 399.16803 3
0.13973804552306135 -0.25691572236134397 3.6472441083635001 60 92 118 400.204865 261.273651 4
-2.5858267575514096 -1.16653224534836 3.983948072647105 226 255 218 134.784012 176.256027 4
-2.4122120895992492 -0.348183769376195 3.5701595787003173 236 255 229 122.342415 250.90564 4
-0.077338738115867944 -0.48211382438269323 1.2714321992595872 201 255 142 358.732849 138.931213 4
-0.27426567112851885 -0.5063169629593286 1.3175756364657043 204 255 149 302.745636 143.078415 4
-0.11787544047925258 -0.57806880763353607 1.3432078192361701 198 255 142 350.438446 124.416016 4
-2.6205247062080166 -1.8760536982430269 3.8962059233520261 198 255 165 126.489616 103.680016 4
0.77378830121705233 -0.13637046037589207 1.654472397556682 40 45 255 561.945679 255.052841 4
0.77508485296275986 -0.11505750459193007 0.93198062920832236 232 236 255 705.024109 240.537628 4
0.21937189116302291 -0.72573506077364602 3.340754691090694 139 255 65 406.425659 201.139221 4
0.40255900159918789 -1.1182136474501845 4.2563124822071128 42 94 128 420.940857 188.697632 4
-0.19622653437891502 0.41355720393637607 0.94695019942830361 46 56 82 304.819244 456.192078 4
-0.15291983997167691 0.31925193004212393 0.94450223449869264 255 77 90 319.334442 416.793671 4
-0.2233791042762876 0.40316485745771213 0.6491105765285704 180 186 181 252.979233 530.841675 4
-0.20792805552294746 0.41326860780082075 0.7848140069552858 48 255 56 282.009644 491.443268 4
-0.07608379296782658 0.4084512528171893 0.63465398716975741 255 121 123 335.923248 534.988892 4
-0.17816218249976423 0.0025275194468406354 0.97180576801777119 255 99 110 311.040039 292.377655 4
-0.24950370665979205 0.1137948268529187 0.41590933037843575 190 185 255 153.446426 389.836853 4
0.72590752619173782 0.35717376400917344 0.98122151830759785 125 143 255 665.625671 427.161652 4
0.20847279963625232 0.1889567884838434 0.48865270221308033 88 107 255 545.356873 435.456055 4
0.77355018428707945 0.059655551819949762 1.6821465616245448 255 49 61 559.87207 302.745636 4
0.73338642480890015 0.14668282101218932 0.92902308048177029 157 255 160 686.361694 350.438446 4
0.93262966972021399 0.42785516905822779 1.666844666800789 168 174 255 601.344055 387.763245 4
0.75442915855191894 0.32734775633369473 0.99372148259279114 255 205 206 675.993713 412.646454 4
0.5079741167173133 0.30182020207686622 2.4597809733390958 18 75 105 460.339264 335.923248 4
0.18709206223444425 0.36345534456978013 1.2224602283982304 78 91 255 441.676849 404.352051 4
0.54064982473692447 0.41846961083521061 0.65613427461553675 85 255 53 702.9505 532.915283 4
0.7893132075420608 -0.90944604133628792 3.4448966853966216 28 76 111 472.780853 186.624023 4
-2.7469762814889207 -2.5029361632998786 4.0363278906888915 170 255 91 122.342415 49.766407 4
-2.5620601328276891 -1.1240838000922515 3.7630209427129975 226 230 255 121.927696 174.182419 5
-2.7824461196109924 -2.5229898067090955 4.0699211415753727 126 170 255 121.927696 49.766407 5
-1.8246522968761805 -0.70850898500479476 3.7016555578504051 187 191 193 196.577301 209.018906 5
-2.81199186397546 -1.2573467559323153 4.3025054845991173 226 255 218 134.369293 176.670746 5
-0.1937844541877648 -0.26492578289689139 1.3237281305547544 128 255 13 330.946594 211.507233 5
-0.2667207709823014 0.082105311040289786 0.66051620584516024 106 118 138 228.925476 335.923248 5
-0.26693524388347334 0.029323306179703711 0.66077522675383926 200 201 202 228.925476 306.063416 5
0.77297992438583085 0.061851299151958805 1.6905961424409168 255 50 59 559.87207 301.086761 5
0.78360698331057954 -0.12514844468777372 1.5704879750870779 115 120 255 577.290344 258.785309 5
0.80882665724438518 -0.14739518802699311 1.7540328382204995 40 55 59 564.848694 256.296997 5
-0.11802833971957372 -0.54662220915271387 1.3905496774831116 255 139 167 355.829803 134.369293 5
-0.27485671991093796 -0.51052884717378633 1.3235931365823659 255 146 173 303.575073 141.834259 5
-0.1404974926230127 -0.61750518138896937 1.4437563600683678 198 255 142 350.85318 124.416016 5
0.19483705678028207 0.25453435334161556 0.44913099283210622 135 255 98 554.895447 507.61734 5
0.21968727794000176 -0.74355172051142215 3.43197061664655 111 141 255 405.596222 201.553955 5
0.33792580921298337 -0.88924977510304315 3.4184489859393774 42 93 127 420.526154 189.11235 5
0.71566992177409516 -0.025373828698913137 0.90293118113403859 241 255 238 686.776428 278.691895 5
-0.24649424732745895 0.11095144981920757 0.41255989781744629 185 255 183 154.275864 388.177979 5
-0.1156157207913463 0.40144792259586459 0.88580323039421438 255 80 92 335.923248 460.339264 5
-0.19961324408108705 0.37375623788779033 1.0952566457309549 111 255 77 318.505005 415.5495 5
-2.5004787720432704 -0.60870158284987408 4.7420843624132569 255 66 83 179.159058 241.367081 5
0.39277382968540575 0.35068197093092979 1.5633609540377431 22 62 83 480.245819 368.271423 5
-0.19251413249775284 0.006967275321998187 1.0040006826950394 127 255 98 310.542389 292.626495 6
-2.6947960909404953 -1.9383894776525652 3.9941113925842613 175 198 255 125.411354 101.523476 6
-2.9293801039607117 -2.3468724633669891 4.2736051314469172 255 109 138 119.439384 74.6496124 6
-0.17529987153194826 -0.2577132414314412 1.2588741350863022 255 25 103 331.444275 209.018921 6
0.22970107483987798 0.21575328376342667 0.49613609479470189 49 69 255 561.365112 447.897675 6
-2.5984953471885071 -1.1718579974453578 3.9885514198537395 226 255 218 134.369308 176.173096 6
-0.27007111437355991 0.35414079094277462 0.65245401080137555 255 155 160 223.948837 498.659424 6
0.8404519898315167 -0.12516999813032662 1.7074384249531807 123 131 134 576.295044 259.78067 6
0.77720820215916486 -0.13776488708661799 1.643403347344468 40 55 59 564.351074 256.794678 6
0.3420488581134507 -0.21812500464722637 2.6791796827413306 87 255 34 426.995789 259.78067 6
0.77216322817195027 0.071199133407943802 1.7191853269693707 74 255 50 558.379089 301.584442 6
0.76542367842570558 -0.77003113061807593 3.5274360865961576 78 112 255 465.813599 203.046951 6
0.22185651741075008 -0.87576210944466548 4.0181469572177093 118 255 57 406.093903 206.032928 6
0.63665889440110879 -0.75047347428120958 3.0410446024316062 255 36 84 459.841614 197.074982 6
0.33598813159780799 -1.0056876469839595 3.9084153131448902 89 123 255 421.023834 191.103012 6
-0.17057134172154176 0.34080630796539385 1.0102441886291336 255 78 90 319.500336 415.051849 6
-0.092133996225517434 0.26475030366207525 0.90657927391102655 176 255 173 346.374207 403.10791 6
-0.15181806462701519 0.21972784319594324 1.0039486867439529 111 255 77 322.486328 376.23407 6
1.0820344665243082 0.096657163711147367 3.504688213774493 165 255 128 498.659424 301.584442 6
0.8030765871401071 -0.88091453717349466 3.5189444621258357 255 25 76 471.785553 191.103012 6
-2.4468789350548499 -1.9739580921923556 4.2134286219582382 46 76 255 161.243164 107.495445 6
-2.7329601366525385 -0.39380418574599341 4.0367090061855677 231 236 255 125.411354 250.822708 6
-2.5620601328276891 -1.1240838000922515 3.7630209427129975 229 255 224 122.425369 173.187103 6
-0.14921975586934533 -0.61612332554984806 1.521639295194722 255 141 167 347.568604 125.411354 7
-0.2501975524610589 -0.57619665295467581 1.361741080987295 255 133 162 311.736786 125.411354 7
0.8741455330677671 -0.1712008531814162 1.220952094459455 237 255 232 662.888611 236.48999 7
0.72996372614837712 -0.16556033407100507 2.8196530311501578 255 37 70 487.312714 272.321808 7
-2.4513192809275166 -0.97007914628821013 4.9507511257275034 198 199 255 197.074982 211.407715 7
-0.18999906467536976 0.36196669598303721 1.0748077717780589 111 255 77 318.903168 415.649078 7
0.71311858251203786 0.37321282113506365 0.96381149385418041 155 255 135 662.888611 433.564972 7
0.6707950876764025 -0.92186807598610321 3.6251881247585995 120 255 35 458.647247 197.074982 7
0.78321100114400077 0.058766911549342826 1.7815896728002725 255 64 75 555.393127 300.987244 7
0.93141404717555909 -0.12493368260875837 1.4865231654541873 255 39 54 623.473572 261.572266 7
0.79443274541260744 -0.14837941477734362 1.7052957173447285 56 255 31 562.559509 257.989075 7
-1.9273258665945776 -0.38313723702048796 3.5829091401349671 255 61 77 175.575897 247.239532 7
0.20413927799174791 0.11150259026365869 2.2968557892055936 255 128 143 419.232239 311.736786 7
0.62883750645769165 0.23224450799056501 1.3388486384238161 136 255 100 558.976318 351.151794 7
0.1458484563733744 0.25853983315323847 0.58342941479367283 255 63 73 483.729523 458.647247 7
-0.09972913632454572 0.27193387380839873 0.91884430235742021 255 167 173 347.568604 401.316345 7
1.1938309432012901 0.10337100066140696 4.000328916355457 165 255 127 498.062256 300.987244 7
-2.5430849179520272 -1.1239336956768622 3.9009895922001299 219 222 227 132.577713 175.575897 7
