ply
format ascii 1.0
comment Written with hapPLY (https://github.com/nmwsharp/happly)
element vertex 162
property double x
property double y
property double z
property uchar red
property uchar green
property uchar blue
property float ix
property float iy
property uchar octave
end_header
1.2885669057552676 0.50171544046968197 2.1037133876717555 122 123 121 620 378 0
0.78021704324904018 -0.55454325623086476 3.8771043351865435 245 245 247 460 232 0
-1.4979482277385259 -1.0581136372854942 2.5145844355404718 230 255 216 154 127 0
1.3534080088086804 -0.72583251099691903 2.3032025953422255 255 204 218 611 166 0
1.3867940156783791 -0.25087100784508198 2.2847673104629482 85 145 168 616 247 0
-0.99483358986858406 0.41846991074410056 1.0903437025170803 214 206 255 33.6000023 433.200012 1
-1.3959289227654299 -0.15642547940708962 3.3648646697232882 99 125 255 225.600006 271.200012 1
-0.83714742503063366 -2.0648931037393581 5.438942011357832 207 226 255 325.200012 142.800003 1
-1.1161180591179285 -1.9455156948827863 4.9070545622651052 179 203 224 296.400024 135.600006 1
1.6004139157516726 -0.7081064808851214 1.773615560059624 224 255 186 730.800049 134.400009 1
-1.5120688752756464 -1.9302185487004522 2.8671998635072073 199 255 125 182.400009 28.8000011 1
-1.4250607519863454 -1.6984124821277042 2.4472711758474825 199 255 125 162 22.8000011 1
0.69633447838583096 0.5218738543607131 1.0676341455003575 59 56 255 633.600037 475.200012 1
-0.75329149859502609 -0.58437485415301893 2.4426955229015981 232 231 255 265.200012 195.600006 1
-1.2691357674121337 -0.7170694308079355 2.8100397735300175 255 87 109 211.200012 189.600006 1
-0.91216032471478981 -1.5445290139086865 5.0962538505324453 255 204 219 315.600006 171.600006 1
-1.2450914677573222 -0.48166337214621535 2.3822083735474102 231 235 240 184.800003 211.200012 1
-1.4716227742197185 -0.57781055294176298 2.4438840011913174 255 234 236 151.200012 195.600006 1
-1.5286539295417847 -0.29102886056957011 2.5367121830460784 242 245 255 153.600006 243.600006 1
-1.4137976431819093 -1.3555667335040482 2.332862820035047 255 155 180 151.200012 67.2000046 1
-1.4422625651414793 -1.6558620629357428 2.401907238519756 255 128 160 151.200012 22.8000011 1
-1.536851293265932 -0.91571649395283572 2.5305738384039969 255 211 220 151.200012 147.600006 1
-1.2455730541531618 -1.0981742875778835 2.3685518074056646 222 255 191 182.880005 112.320007 2
-1.4574137457643372 -1.1425499313809624 2.4838386030583877 216 227 255 161.279999 112.320007 2
-0.46206442246776058 0.52356134128384113 2.6832628173549704 255 231 232 319.680023 362.880005 2
-1.2080638610914614 0.32869085558298483 2.3998740521507389 214 208 199 188.640015 341.279999 2
1.273943232687262 0.49232867456755702 2.0876781936282423 122 123 121 620.640015 378.720001 2
-1.2730114006304656 -0.96893887111278687 2.3977898064485825 204 215 227 180 133.919998 2
-1.2626519567881744 -0.7126091916845958 2.3926568817290548 226 235 255 181.440002 174.240005 2
-1.2701741418532615 -0.80235283005319147 2.4089978881933281 220 232 255 181.440002 159.840012 2
-1.2674590383679023 -1.2499656062676472 2.3947199392648759 184 213 255 181.440002 87.840004 2
-1.3704827967836368 0.2980350442345614 2.2062767103263701 202 199 194 144 339.840027 2
-1.346991803289435 -0.50772913122333208 2.5537795267384573 241 255 232 182.880005 210.240005 2
-1.5850945679920372 -0.71108536150757118 2.6649578574256747 233 235 239 152.639999 184.320007 2
-1.2942430067074233 -0.17208934072874627 2.4397890679512013 244 245 246 180 260.640015 2
-1.2917210173603464 -0.28013663085974372 2.424841255187693 245 255 241 178.560013 243.360016 2
-1.4573102984466724 -1.2623779833292552 2.4321597767394949 255 161 186 151.200012 87.840004 2
-1.2468341236232843 -1.4894541471688285 2.3503350569817885 203 255 128 178.560013 46.0800018 2
-1.4930886007312405 -1.4906222420553199 2.4738475873412886 255 141 171 151.200012 54.7200012 2
1.5056785713092062 -0.87748384629922715 2.1664088871706801 194 209 226 652.320007 135.360001 2
1.5543410238201556 -0.8416899878476527 2.0125685824865687 232 255 220 682.559998 129.600006 2
0.97915079295584939 0.20586637043786915 2.8861434755725952 129 132 255 513.216064 316.22403 3
0.21912768319892106 0.42401356557399161 1.8352321052497103 222 255 226 430.272034 376.704041 3
1.1859376151467085 0.3965804373618429 1.727921689351203 185 255 155 646.272034 376.704041 3
1.1036625380651264 0.34104787532765712 2.0557388755639989 255 134 142 587.520081 350.784027 3
-1.2596040999683504 0.3655402166858206 2.155186668519447 227 255 226 162.432022 352.512024 3
-1.2766392995245477 0.16484839864858669 3.3031265091472672 58 76 102 236.736023 307.584015 3
-1.6403528471116418 0.41283102671814831 2.762184431877472 255 217 214 155.52002 349.05603 3
-1.3493754190765173 0.44715109718900869 2.9052116953780684 58 53 255 205.632019 345.600037 3
-1.3593381016052417 0.28860668315612603 3.1476093988212206 113 131 255 217.728027 321.40802 3
-0.77698711759537176 -0.59974902937975827 2.4996666651402255 231 255 230 266.11203 195.264023 3
-0.66048315750980091 -0.29972624293091954 2.7003065781577851 210 212 217 292.032013 245.376022 3
-1.2162558142100441 -0.40118276477942416 2.8034240167353257 88 107 132 216.000015 236.736023 3
-1.3167483592536668 -0.19402026502967651 2.4099344438931296 245 255 243 174.528015 255.744019 3
-0.82495878747946838 -2.0151197523699267 5.312537657134639 185 206 226 324.864044 141.696014 3
-1.4924836536460284 -1.4269007354368064 2.4766432621653549 156 181 210 152.064011 67.3920059 3
-1.2408802970632715 -0.86747658037271336 2.3636557339320694 255 206 217 183.168015 146.88002 3
-1.4729772102447032 -0.97904863094882444 2.4423618457180631 217 228 255 153.792007 133.056015 3
1.5444089366517866 -0.82726111453547091 1.9931351042417678 232 255 220 682.560059 129.600006 3
-0.51712488908414 0.54167654085729211 2.0275703166486934 67 93 111 288.576019 390.528046 3
0.40996060684299684 0.5135671222560827 1.0077621738998568 111 125 147 540.864075 485.568054 3
0.73113143777461598 -0.61448047308027398 3.5481700388589559 255 236 239 463.104034 222.912018 3
-1.3029984533687564 0.28001971502942435 2.5922365182934457 134 255 124 190.771225 325.555237 4
0.94133626426711658 0.34779801756804396 2.8048799507032154 175 255 129 510.105682 331.776062 4
-0.51921356052238954 0.31644117852676779 2.4783040157118066 232 232 232 300.672028 335.923248 4
-1.2435848189314109 0.16422919939733971 3.1916491911239122 56 74 101 236.390427 308.966431 4
-0.57944381938099365 -0.49307588161844862 2.4093570417050403 240 255 223 290.304047 209.433624 4
-0.76541222472636994 -1.4183353749157419 4.5912282595923539 220 233 255 317.260834 172.108826 4
-0.84005953581477488 -0.12821766156062253 2.5279658682814556 255 203 205 255.052841 265.420837 4
-0.61086664526671886 -0.27940268884412411 2.5397461083418742 199 255 182 290.304047 244.68483 4
-1.4806859930689606 -0.44360177685966207 3.416239763053099 255 92 112 215.654434 236.390427 4
-1.2215010835296658 -0.64902407365854842 2.4627543720880904 225 230 235 192.844833 186.624023 4
-1.5446123618369314 -0.69222966210560344 2.5707201350912467 235 239 255 153.446426 184.55043 4
-1.1906002928984099 -0.17592717004507996 2.2327276733067842 244 245 247 180.403229 261.273651 4
-1.4583421839441377 -0.28323363771596455 2.4291097358433715 242 245 255 153.446426 242.611237 4
-1.1714230382052708 -1.9814000870008428 5.0761782104030546 224 255 180 294.451233 136.85762 4
-1.2629056175026023 -1.455030336269985 2.3801944185771746 135 168 205 180.403229 55.9872093 4
-1.2881356912941326 -0.97130212077025391 2.414455084138071 227 255 207 178.32962 132.710419 4
-1.2572786944138645 -0.88731018235040793 2.0861565440262742 224 231 255 153.446426 124.416016 4
1.2600218243124119 -0.67810212131802317 2.1154962040917997 255 205 219 611.712097 165.888031 4
0.85844041138275107 -0.65199271041061024 3.3077966196544164 255 233 237 487.296082 215.654434 4
0.25450943516604241 -0.70977003789154125 4.8282045742157047 175 255 165 402.278442 232.243225 4
1.4484211172336863 -0.8164555805366307 2.0977468257780147 255 192 208 651.110474 134.784012 4
1.5095967525729288 -0.8159281321716596 1.9485758350471389 231 255 218 682.214478 128.563217 4
-0.10188077726155065 0.51487550993329556 0.93400581140403238 223 255 223 342.144043 497.664062 4
-0.39064262014846629 0.32851789741467829 0.73812466584253755 166 255 157 182.476822 456.192078 4
-0.31975380423355548 0.35213578325632078 0.59880597046509987 205 255 205 178.32962 516.326477 4
-1.2287588951444599 0.33291811195206655 2.0519488774341741 255 216 215 155.52002 350.438446 4
-1.1815132527255496 0.3673210589345981 2.2523635885729441 213 255 200 182.476822 354.585663 4
0.6914438624892012 0.51396193214758767 1.0528203784288679 65 255 35 634.521667 474.854462 4
0.17481093275273185 0.38875121100873145 0.84491707371360514 146 157 175 460.339264 462.412872 4
0.20156359863703477 0.36069368393524215 0.8055460572443498 255 225 225 483.148865 462.412872 4
0.98269988406911957 0.19804044982535229 2.9356605179754789 109 136 143 512.17926 315.187256 4
-0.54089590403132481 0.30867656016608436 2.5484648909750209 233 233 255 301.086761 333.434937 5
0.82192088415145925 0.48149451772994212 3.8246191083850567 160 255 136 470.292542 338.41156 5
-1.2752943513683737 0.16949548946038018 3.2673221738772984 98 118 255 233.902115 308.551727 5
-0.18366497277524529 -0.052008697556057193 6.7455355918822377 119 140 255 373.248047 283.668518 5
-0.77157065843757922 -1.8974164780362273 5.0257316545657869 206 226 255 325.969971 141.834259 5
-1.4682942356007258 -1.0415384728759811 2.4599063254888622 231 255 220 154.275864 124.416016 5
-0.79620225684672885 -1.4250562671206666 4.6147326357044518 203 218 233 316.016693 169.20578 5
-1.3022683683929639 -0.28206480101250087 2.4370822411264901 255 241 242 179.159058 243.855392 5
-1.389406384208558 -0.22875891677763782 2.3327665167515046 245 255 241 154.275864 248.832031 5
-0.040793604858633925 0.48335911446264213 0.82018803333669377 85 115 121 360.806458 512.593994 5
0.74320449526873944 -0.53812579205784417 3.6756212248478688 244 245 246 460.339264 231.413788 5
-0.82895100354527029 -0.94927658271186743 3.2561639875271906 230 255 224 286.15683 174.182419 5
1.1836230029930541 0.4512742738389921 1.9124530330766367 144 145 143 624.56842 378.224701 5
-0.91451455231995116 0.51699804081675538 1.2088243658535527 80 255 56 94.5561752 457.850952 5
-1.232515519767591 0.50399782574374896 1.3950384062110919 255 48 55 47.2780876 430.479431 5
-0.85154972768165527 -0.12839542243370961 2.577515928096628 208 209 210 256.296997 266.250275 5
1.0130162694719766 0.46927454227744292 2.3331233106466627 105 123 141 552.407104 370.759735 5
0.19897075806077291 0.34499105265326868 0.75870820353113189 218 217 255 485.222473 460.339264 5
-1.501760198027859 0.14035138693050508 2.3707500503323082 236 241 255 141.834259 308.551727 5
-0.11982843969837287 0.48416409387840886 1.6702045902820122 255 64 78 355.829803 395.642944 5
-0.39153677245081986 0.39949758954319137 2.205086487980227 232 233 234 320.993317 358.318115 5
0.071260284439452315 0.18206731143505417 3.8349289670911721 104 125 148 388.177979 301.086761 5
-0.60557168204246725 0.1741001323075797 2.6209424548407609 132 147 171 296.110107 316.016693 5
16.081932637208919 -18.960565107732521 33.120745718462246 255 140 174 567.337036 72.161293 5
-1.2099364493846863 -0.16627839124782007 2.4469748647711502 255 240 242 191.103012 262.766632 6
-1.3084794286545502 -1.0067996453445645 2.423845791244732 255 203 213 179.159073 125.411354 6
0.15010803086555891 -0.63440198541639248 5.4239718753231507 111 255 61 394.149963 244.850739 6
-1.8882447778602094 0.47260660901705087 2.2905400755395071 28 34 255 65.691658 370.262085 6
0.75981698276378529 0.47085396522910372 1.2534580098195214 255 218 218 615.112793 426.995789 6
0.66082991446950778 0.50103086778145389 0.90478980696423372 119 140 255 665.874573 504.631378 6
-0.57364586425173814 -0.49572956360244191 2.3872555384285588 232 239 255 289.640503 209.018921 6
-1.0167709622197161 -1.1075191992421836 3.9491078098497923 255 226 227 283.668549 176.173096 6
1.3304614689839873 -0.70599523426571853 2.2790097136234198 206 219 232 612.126831 164.229156 6
-0.044912410252539559 0.48866257196612217 0.83793715744490083 109 114 255 361.304138 513.589355 6
-0.088237633697058504 0.46714356090002518 0.85602334057318341 221 225 222 340.402252 498.659424 6
-0.57939363725645787 -0.35319961636446884 2.441190724349231 232 236 255 289.640503 232.906799 6
1.4419667739837361 -0.80789665848946246 2.0939341517294738 196 211 227 644.972656 143.327255 6
1.6099654943838551 -0.86189628939326779 2.093578898846133 217 222 231 680.804504 128.397339 6
-1.3084807628755279 0.38350456739902228 2.4903401812863941 224 255 221 182.145065 349.360199 6
-1.3192897320765384 0.3767286866330295 2.2545167732224471 154 166 183 164.229156 355.332153 6
-0.54089590403132481 0.30867656016608436 2.5484648909750209 236 255 236 298.59845 331.444275 6
-1.0695612439364366 0.24148392744994851 2.4565041981626372 113 131 255 217.976868 322.486328 6
-1.2575986451405252 0.16023209312308184 3.2057248494141311 255 69 87 235.892776 307.556396 6
0.84812588221819241 0.35543319704996357 2.486458639129026 131 255 120 510.603363 343.388214 6
-0.36559844867542024 0.44007727155779186 2.2866635117115717 255 232 234 319.500336 358.318146 6
-0.89826202735831906 -2.0289417077226659 5.510197145798986 226 255 186 322.486328 143.327255 6
-1.037578556350474 -1.7548533407886566 4.4464742326140687 255 183 205 295.612457 140.341278 6
0.67667132576697897 0.51525253263297799 1.0418839771106954 51 255 30 634.223145 480.146332 7
1.4322482242238186 -0.79730614949579381 2.0636276543138408 194 210 227 648.555847 139.74408 7
-1.33683888935919 0.37749168788428911 2.2736039376893578 178 186 197 164.826355 354.734985 7
-0.40692553603507076 0.44302888233285387 1.6443887026158706 110 255 65 286.654541 390.566803 7
1.6937285283570918 -0.63232966686231595 4.9056254223943894 255 239 241 515.978149 243.656357 7
0.48846874718422217 0.36397491602623866 1.1795559227367929 120 140 160 548.226807 404.899536 7
-0.74551577054650409 -0.12579022237736392 2.268873883762843 207 255 194 254.405899 265.155426 7
0.077680499375955225 0.16200698393893065 4.9455306750749957 145 255 102 386.983612 300.987244 7
-0.93847040021151473 0.34409188305997951 3.9046647945313797 148 165 255 293.820892 318.903168 7
-1.1796587130046872 0.17333344288247066 3.0094957363283097 77 96 117 232.906799 311.736786 7
-1.7239610988787564 0.33555511250137471 2.8509264509697996 176 255 181 150.493622 336.819061 7
-1.4473236741808151 0.18694687970369683 3.0060318374573027 96 106 126 200.658173 315.319977 7
0.39093736943049051 0.48121569035454748 0.94671479237785006 65 99 100 548.226807 487.312714 7
0.77243387481164816 0.46327136193675678 1.1899269073411118 185 255 168 630.639954 437.148163 7
1.3224575067910167 -0.70134819552618488 2.2267295574468031 206 219 232 612.72406 164.826355 7
0.7518795061213519 -0.53829621198445921 3.7880632288752869 246 255 245 458.647247 232.906799 7
0.88177874005121193 -0.6243677087426569 3.4073383689106107 232 236 241 480.146332 211.407715 7
0.45308209142432498 -0.73761000244864761 4.7119376131297006 255 136 157 419.232239 229.323624 7
-0.89110968065609697 -1.5222898466409234 4.9125894592382009 255 203 218 315.319977 168.409531 7
-0.75751533990199205 -1.291350469802623 3.3106808531995062 205 225 255 293.820892 139.74408 7
-1.4310206657809101 -0.27393921575940006 2.420982175206055 243 245 255 157.659988 247.239532 7
-0.063378637512942593 0.048444649204238965 4.3020238000989819 96 118 138 372.650879 286.654541 7
