ply
format ascii 1.0
comment Written with hapPLY (https://github.com/nmwsharp/happly)
element vertex 121
property double x
property double y
property double z
property uchar red
property uchar green
property uchar blue
property float ix
property float iy
property uchar octave
end_header
0.82839812417951797 -0.45212573128470657 0.87885429181269625 228 255 204 746 91 0
-2.0465322321674368 0.72398256301294028 2.5231934055280121 195 186 185 72 397.200012 1
0.8664495205966174 -0.4730700618879784 0.92545539129135079 203 213 228 744 91.2000046 1
0.72930194257281511 0.731924906365784 1.1225280988465176 133 162 255 633.600037 541.200012 1
0.56884369198202478 -0.071110594981050934 1.064229722586588 250 251 255 589.200012 265.200012 1
0.71821464922814737 0.44620387163180625 0.76769120117729717 105 125 153 744 511.200012 1
0.2345489750523615 0.20858093054178978 2.2639165617136063 252 255 245 422.400024 321.600006 1
0.56878676568613096 -0.43653123616608003 1.0758162357551253 220 233 255 585.600037 133.200012 1
0.59612752492478061 0.15480634615238031 1.2116739155494844 171 255 125 574.800049 336 1
-0.097994291000736311 0.67175719410348733 1.0588891928302164 213 209 255 349.920013 529.920044 2
0.72706069637003523 0.10507283875227491 0.83313205921645217 84 104 255 717.120056 336.960022 2
0.42931048079980383 0.70011212625453201 1.7397860633647841 125 255 126 478.080017 443.52002 2
-2.0869647983509605 0.88237602119075098 2.4133591421343983 51 255 35 54.7200012 429.120026 2
0.74533495285911777 0.41299472780405649 0.86243510200726092 255 73 83 715.680054 473.76001 2
0.57233008150135123 0.14363665796126546 1.1471250776886537 131 150 175 576 335.52002 2
0.59096550656601798 0.28816046875379403 1.113355686891464 255 147 166 587.52002 387.360016 2
0.31826426281063025 0.21346589784710079 1.9167909856761565 255 244 246 447.840027 332.640015 2
0.73039101647541971 0.51740718959326093 0.95274498593683354 144 175 255 677.376038 494.208038 3
-0.31092430909047808 0.7051062086151334 1.6871093712120455 182 193 204 312.768036 447.552032 3
0.56644430370464449 -0.32831330564687189 1.1494473643699354 255 223 231 571.968079 177.984024 3
-0.24124261460179497 -0.22477918293006449 0.36431318072558039 143 167 255 129.600006 51.840004 3
0.56543380688860068 -0.15676784680464739 1.1818112855106575 248 255 246 566.784058 238.46402 3
0.51337877652417641 -0.13941081869558758 1.4479876053623686 246 249 255 521.856079 250.560028 3
0.76188647230048678 -0.47882160442401345 1.0966417060133962 220 232 255 649.728088 120.960014 3
-1.1501898405956141 0.71715763691751899 1.2807163864742437 88 89 87 36.288002 504.57605 3
-1.7794661412638826 0.33500780849084233 1.9731506663322484 182 200 211 36.288002 350.784027 3
0.69459695940325572 0.34483341330410111 0.82561211118069089 120 255 93 706.752075 445.824036 3
0.37960018575228172 0.69384635284273721 1.6538547984337955 255 108 111 471.744049 449.280029 3
0.63824418617625556 0.111081795209656 1.0534948373833801 245 249 252 620.352051 326.592041 3
0.55018791459363237 0.011356372003088477 1.0314836166942785 255 248 249 587.520081 292.032013 3
0.72823291291827785 0.10488225502937881 0.83778665114369133 84 103 255 717.120056 335.232025 3
-0.31021512632837656 0.65276257123822412 1.4752878478321891 142 159 183 300.672028 460.339264 4
-0.21890756515348953 -0.12684523215940591 0.39363528299387607 255 62 109 167.961624 161.740829 4
-0.3081434751488743 0.69133225148244748 1.663415861261976 205 211 255 313.113647 447.897675 4
-0.19755544200880903 -0.22088575265075283 0.35808240386864743 60 255 4 174.182419 51.8400078 4
-0.2230832036302961 -0.25564384568254139 0.40696323243255339 129 255 28 170.035217 43.5456047 4
-0.19613466243612576 0.074108280160062212 0.35430100625893335 143 255 50 174.182419 367.027252 4
-0.21651149481535281 -0.20747727349866052 0.38379696430859322 255 68 112 167.961624 80.8704147 4
0.73434658360730687 -0.32407573096579334 0.95622864759706072 230 234 239 680.140869 155.52002 4
0.76332999136072033 -0.48436401595281642 1.1187508873097114 220 232 255 649.036865 120.268814 4
-0.094849248082594428 0.60233484071306087 0.94846401655172574 206 255 210 350.438446 530.841675 4
-0.22289646319017731 0.19517873606265912 0.38433358592841849 85 114 255 161.740829 483.148865 4
-0.17735129651649073 0.65481393980803082 2.106591290563224 184 255 160 350.438446 408.499268 4
-0.41546269092132526 0.56434649982065166 2.0764384984268096 192 255 150 306.892853 396.057648 4
-0.21857820602656908 0.075546387707642326 0.37685934174861124 99 126 255 161.740829 367.027252 4
0.71027523323086017 0.49995415624270079 1.0326956345289302 228 255 227 646.963318 472.780853 4
0.59318784541278813 0.10276258030051222 1.2007790135017826 251 255 243 574.387268 321.408051 4
0.041555575884237639 0.18099238064310341 1.9903331325926983 255 107 161 391.910461 323.481659 4
19.330279800063529 -31.402838915876227 58.490308032831358 223 255 178 514.252869 82.9440155 4
-1.7746137081403268 0.42182160722327211 2.1448417192104916 86 90 95 64.6963272 368.271423 5
-1.6947647126663852 0.41494125184515962 2.0620348789924519 93 93 102 72.161293 363.294769 5
-0.29841940282370683 0.69194237382023027 1.6286349811388954 205 211 255 313.528351 447.897675 5
-1.6904887229055019 0.71972905728058256 1.9591357015815376 24 31 45 52.2547264 427.991089 5
0.60064985073094013 0.68230241671540559 1.2482827178190217 162 170 185 572.31366 497.664062 5
-0.32615262535409784 0.70702350015960125 2.8883403931947482 122 167 191 340.899902 383.201324 5
0.38214381409890863 0.60955209121722587 1.6051314973279638 255 118 121 475.269196 435.456055 5
0.68345026332877246 -0.51263112274206901 1.3022841048331362 255 210 220 587.243591 134.369293 5
-0.26765491925788876 0.18628475578023418 0.37647836737190143 255 140 159 111.974419 480.245819 5
-0.10533227231502851 0.67822521686691584 1.0911735651360903 224 219 191 348.364838 525.035583 5
0.55195077356743827 -0.36866194170831856 1.575530944325811 230 236 242 520.05896 196.577301 5
0.42699545169036979 -0.26803595564955829 1.0326871585453503 255 229 235 539.965515 189.11235 5
0.55476704383661768 0.30831867414760772 1.0534746004809188 255 120 154 587.243591 400.619568 5
-0.25673487333114364 0.16663768662901013 0.35922280620056224 182 255 139 114.462738 465.315918 5
-0.21984030704849733 -0.10063908976744729 0.39019942704244848 111 140 255 169.20578 189.11235 5
-0.22089016283727947 -0.14536747764129809 0.40247455715287028 138 255 38 174.182419 154.275864 5
0.5765134178232052 0.11854876812307008 1.0945062520563686 255 188 200 587.243591 328.458282 5
0.53887748824460613 0.014370654636601199 1.1247606722652694 255 248 249 567.337036 291.133484 5
-0.25491660411612527 0.06773936752582943 0.35763183149082955 255 146 165 111.974419 360.806458 5
-0.21947541664524373 0.2289413044103854 0.3955053095217318 141 255 71 166.717468 510.105682 5
0.73598163163992991 0.53213237966061566 1.0750851550612133 229 229 255 649.451599 472.780853 5
-0.25462287466100841 -0.23768389843893112 0.38919133486373525 255 122 142 131.880981 52.2547264 5
-0.19791847798489082 0.1192514405706423 0.403723386129478 255 78 134 191.600662 403.10791 5
-0.18992509899995769 0.69719916360875756 2.2278954276519052 184 255 160 350.85318 408.084534 5
-0.23919539357241693 0.60274624214647976 2.6036911867311048 140 168 191 352.346191 373.248077 6
-0.13153636754774034 0.59931202714769882 3.212162441144768 255 153 176 367.276093 361.304138 6
0.59946652641417297 0.68963457591007016 2.13112605067787 193 255 162 486.715485 412.065857 6
0.70386247534067148 0.5314697592201687 1.0508438470565693 165 185 255 641.986694 486.715485 6
0.64266395685947608 -0.482182482355067 1.2229461548341787 220 233 255 585.252991 134.369308 6
27.721192190600821 -28.552019884815444 71.104360855029483 232 255 209 534.491211 134.369308 6
0.75245084603001988 -0.32945334343779664 0.97764888555104523 232 238 255 677.818481 152.285217 6
0.52743412699379455 -0.34967366804436961 1.4346195052659088 227 234 241 528.519287 194.088989 6
-0.22127163628506663 0.19140789080437559 0.4261095339160601 15 100 131 188.117035 456.855652 6
0.44133708603084809 0.32201600522206203 1.3510843262040426 199 255 180 510.603363 385.192017 6
-0.19907215673574363 -0.14227226373163493 0.39931303732448509 24 104 134 188.117035 149.299225 6
0.66076789717149476 0.12819442576101336 1.1144231871925836 241 246 255 609.140869 337.41626 6
0.58417033367241156 0.66880177747550773 1.2141174173609341 182 255 147 570.323059 498.659424 6
-0.19280543980530185 0.71404614598239213 2.2734030305977564 174 192 255 349.360199 409.079895 6
-0.38675394900234394 0.74075301212733513 2.1578714424597933 200 255 155 310.542389 418.037842 6
-0.31638162493731503 0.64211428454409403 1.4821537937118441 182 255 140 298.59845 456.855652 6
-0.22140576316807437 0.22915259468326243 0.39121172608337584 255 72 116 167.215134 510.603363 6
-0.36454196352669754 0.39558655179036373 2.0053119019096668 223 223 255 313.528381 364.290131 6
0.48918123283170045 -0.15198166613144465 1.0993504537299215 245 247 255 549.421143 235.892776 6
-0.67613889845631059 0.53982029961945011 1.0369621607320818 126 145 171 132.577713 480.146332 7
-0.19551738183383405 0.51051555726124442 1.6339404654441694 143 159 182 340.402252 401.316345 7
0.54765183433005826 0.65761925855565728 2.0403396673158172 255 148 159 483.729523 412.065887 7
0.59581478699296841 -0.36479803073035877 1.1860164573983241 230 234 240 576.892212 171.992722 7
0.73299343230769676 -0.46177086618829555 1.0637663203819496 214 222 233 644.972717 121.828178 7
0.52743412699379455 -0.34967366804436961 1.4346195052659088 255 231 236 519.56134 197.074982 7
-0.22212478191975826 0.12039603675490762 0.39765347266738882 62 96 116 168.409531 408.482697 7
0.59288877194392064 -0.10479482495727255 1.2210997050059129 247 249 255 573.309082 254.405899 7
-0.075183629897627391 0.44056474237516524 2.989750879521508 121 165 189 372.650879 343.985443 7
-0.22076255108554177 -0.1310616428615744 0.39578174016356638 49 103 134 168.409531 161.243179 7
0.70149172950381922 0.52833881288605178 1.0390714990848258 146 173 255 641.389526 487.312714 7
-0.1918378133887173 -0.08203830096294451 0.37894876769437857 106 135 255 193.491806 207.824539 7
-0.22193792582973915 -0.08315216018991245 0.39627259275254101 58 108 134 168.409531 204.241348 7
-0.21562435385727419 -0.10266671125816162 0.37889556903423394 50 113 142 168.409531 186.325439 7
0.6100870881146534 0.10390822873667055 0.98835646483126638 255 245 249 619.890442 326.069519 7
0.26947296197558357 0.1916626113991966 1.5839245882389168 245 249 252 444.314514 329.65271 7
0.27011641856837643 0.22490012029611717 2.7677375372284798 252 255 245 422.81543 318.903168 7
0.13235826932431571 0.16297286563771868 3.1353109632653666 182 229 230 408.482697 308.153625 7
-0.30877506706830893 0.6541539372080184 1.38701782011485 157 181 255 297.404083 469.39679 7
-0.27987067010355826 0.66218046730922375 1.488872008156731 255 167 181 311.736786 451.480896 7
-0.20280132899696124 0.71600259391032561 2.2946191158034006 255 152 169 347.568604 408.482697 7
-0.41871036152156016 0.80098926460635855 2.3688427864148558 255 170 185 311.736786 419.232239 7
-0.21863288204703091 -0.18805381252860731 0.37933928731035049 41 106 130 168.409531 96.745903 7
-0.22032577068474479 -0.21974747658537763 0.39810558814566743 60 109 142 164.826355 75.2468109 7
0.55616265457210279 0.6529635150380283 1.1922553295047988 160 179 255 569.725891 498.062256 7
-0.22584012534286702 -0.017819226106189245 0.41287375170058294 47 97 126 168.409531 272.321808 7
0.12059956863368226 0.80246987645636758 2.16873428502576 9 27 28 404.899536 433.564972 7
-0.215752599414615 0.082861861365345901 0.38038711251116553 63 110 135 164.826355 372.650879 7
-0.20566587284073812 0.5591336664035812 2.4640203233194287 255 93 160 351.151794 376.23407 7
