ply
format ascii 1.0
comment Written with hapPLY (https://github.com/nmwsharp/happly)
element vertex 149
property double x
property double y
property double z
property uchar red
property uchar green
property uchar blue
property float ix
property float iy
property uchar octave
end_header
0.92205529295384847 -0.22009844724166228 2.0822208962945856 246 247 249 556 247 0
0.43874394009492712 0.68654074668029685 1.3729671040876337 117 130 148 508 481 0
-0.23203697999469153 -0.41227670191703969 1.4810357261341327 230 239 255 325 181 0
-0.24125583148307017 -0.080661548369692859 1.5386915403567452 248 250 255 325 267 0
1.0175973521596295 0.51342088665469454 1.2282131620061714 255 133 138 703.200012 447.600006 1
0.97274690906879302 0.48192833631233545 1.1807110199248223 170 255 126 702 444.000031 1
0.98127573116501776 0.50614894398596721 1.2906735744062567 255 139 156 675.600037 439.200012 1
0.42438867462680507 0.66892071529628749 1.322855453527958 255 116 128 507.600006 481.200012 1
-0.30897661365012041 0.60476779792791824 0.9384686809852365 255 130 149 255.600006 535.200012 1
1.0727776950523555 -0.2089943911976706 1.1973750724094554 255 127 160 727.200012 219.600006 1
0.47543785420750218 0.67011641647328979 1.2027413336019395 115 134 255 537.600037 501.600006 1
0.74403000864821811 0.62541366181114566 1.7833284225839119 255 129 141 543.600037 421.200012 1
-0.28016809914397278 -0.73605985029981347 1.9538025435806361 255 194 215 327.600006 142.800003 1
-0.44254337590188486 -1.1771153220768733 2.1009589292724691 192 219 255 301.200012 73.2000046 1
0.58091471246683613 -0.06083269845135697 2.7667572627048838 250 251 255 465.600006 279.600006 1
0.53639755908616182 -0.4321687102056897 2.6462516090732722 255 243 245 463.200012 225.600006 1
0.87762507001775658 -0.072309061532709329 1.9436843565893449 255 249 250 559.200012 273.600006 1
0.22449776732043292 0.084507070695562625 4.2242886061259206 255 145 168 403.200012 293.76001 2
1.0032401179794463 0.52009444772419311 1.3254608709333864 255 139 156 675.360046 439.200012 2
1.0184279723451524 0.5233927663647111 1.3920658469615095 255 231 231 663.840027 432.000031 2
0.63105065231699964 -0.54836539537484175 2.2801013935200691 235 238 243 488.160034 195.840012 2
1.0437278088633046 0.52283873247289114 1.1237558883693533 179 255 141 738.720032 465.120026 2
1.0116081782338333 0.59229190006050647 1.2972678269817344 169 255 119 682.559998 463.680023 2
0.29074625463167703 0.64387630737035795 1.6358993880411488 133 158 255 453.600006 436.320007 2
0.81574633702752464 -0.52076081713031974 1.9403464341172576 255 231 235 547.200012 185.76001 2
0.53854582140171248 -0.2166003134086012 2.4988456717497884 249 255 246 466.560028 254.880005 2
0.76197491150407526 0.59055157151308957 1.5750693396235924 161 255 124 570.240051 433.440002 2
0.15920541701647251 0.7673197440326438 1.2888906868434047 29 255 4 430.560028 519.840027 2
1.074215957648456 0.31268472016869864 1.2223169585915672 157 176 255 721.440002 387.360016 2
1.0157543885353055 0.3702745669802292 1.2652899271198308 110 128 152 692.640015 397.440002 2
0.72346209154024987 0.34606517524977964 2.1341895012545367 161 255 124 514.080017 349.920013 2
0.69114414073546371 0.44119085491188592 2.0379950829574751 255 127 141 511.200012 370.080017 2
0.42831595032084446 0.67396101871136271 1.3541823192113318 145 255 115 506.304047 480.384033 3
0.85504252798563218 0.42390444853789844 2.0753094626129931 131 143 160 544.320068 368.064026 3
0.8423984296952336 0.32881991813534617 2.0599593088211465 147 164 183 540.864075 349.05603 3
1.0030999086662431 0.50541752175339782 1.1756638824888936 121 141 170 708.480042 451.008057 3
-0.12332575992341654 -0.014766825013008855 0.73369855580654164 255 248 249 319.680023 283.392029 3
0.78688940730548018 0.10351012627282952 2.0095451185305739 172 190 255 537.408081 305.856018 3
0.35204492684333055 0.6761434738623211 1.0311289922931248 137 159 255 513.216064 540.864075 3
0.48064544018722666 0.66590442309515741 2.7453284135020182 185 203 255 449.280029 380.160034 3
0.56124806209186739 0.01324796441327325 2.4023410647299421 250 251 255 473.472046 288.576019 3
0.59681035865683452 -0.00021749769168488697 2.319565367145012 255 249 250 483.840057 286.848022 3
0.60236393167848989 -0.17739080272419083 2.3717430474758414 246 247 249 480.384033 257.472015 3
0.82653943988067358 0.51652332572778414 1.8475237197110514 89 103 119 556.416077 397.440033 3
-0.23571261681265776 -0.40596571416513716 1.464075918218219 218 229 238 324.864044 179.712021 3
1.0825270898140762 -0.064868475478819798 1.1940538910035938 157 180 255 729.216064 269.568024 3
0.52697295367536867 -0.42970348771935507 2.6020014157259546 244 246 255 461.376038 224.640015 3
0.88072939744000722 -0.23181868786116167 1.9867505581057623 255 246 246 551.232056 245.376022 3
-0.059026860667169112 0.71069411007177985 1.0799623767724604 137 255 95 362.880035 540.864075 3
1.0543615369005006 0.6143531119311183 1.1986567810364495 199 255 188 718.848083 483.840057 3
0.29469756610841147 0.66757293529788564 1.7278881366160475 128 143 164 452.736053 437.184052 3
0.73079695461892835 0.63012509155754648 1.8017418705796544 133 146 165 540.864075 419.904053 3
0.46823021106088891 0.65494818882382422 1.1629196061123066 109 129 255 537.408081 502.848053 3
1.0046010231692439 0.36787813064763064 1.2877056351352403 72 86 114 684.288086 397.440033 3
0.49130157128682406 0.010203501467966669 2.287187928222866 251 255 249 466.560059 288.576019 3
0.97389069124076511 -0.45308534143289259 1.6240772215659449 236 242 255 613.440063 183.168015 3
0.9854360301606826 0.48815283583658609 1.1521136533276124 138 168 255 709.171326 449.971252 4
0.36571423279012727 0.19473334428521372 3.5826790262509132 255 47 121 423.014465 313.113647 4
0.2770020944681848 0.15635862870610118 4.0258006646946152 105 143 170 412.646454 302.745636 4
-0.25810098118547442 -0.32856128061569345 1.6371044783723798 255 234 238 323.481659 207.360031 4
-1.9608302388296757 -0.53830143652790952 2.753398659501773 255 112 107 107.827217 213.580826 4
-0.55794669808955533 -1.3027638324200734 2.3391078067157167 162 191 219 292.377655 74.6496124 4
1.0015063881865254 -0.46377238686489908 1.6645098402768914 236 241 255 613.785706 182.476822 4
0.57294248416991334 -0.44491883931996723 2.2632419111176425 241 245 255 481.075256 211.507233 4
0.81601952092090135 -0.52175248548383157 1.9529402451202467 235 241 255 545.356873 186.624023 4
-0.47604177235464995 0.076200601960377812 2.1378266627049909 152 169 188 296.524841 302.745636 4
0.86539492131509976 0.66351722280548553 1.7888791703060694 161 255 124 570.240051 433.382446 4
0.96775982951628958 0.48032025440227621 1.1668614562441233 123 141 171 700.876892 443.750458 4
0.98030271618124143 0.51064600859190246 1.2918482688195905 255 129 146 675.993713 443.750458 4
0.21535959675842919 0.67278534010822266 1.498187990803352 255 152 159 439.603271 462.412872 4
0.42800165362795739 0.66779468834809741 1.2038451977187306 104 115 134 520.473694 501.811279 4
1.0715697520325724 0.31398287434944416 1.2238834544657102 255 128 152 719.539307 385.689667 4
0.55493447783204397 -0.0046451906139728383 2.1459281633167722 255 249 250 483.148865 288.230438 4
0.5767133912296154 0.63139853147483227 2.418898460150559 110 113 119 476.92807 387.763245 4
-1.9815235478026318 -0.55205487001236175 2.7703455514105313 107 255 104 106.997772 216.483871 5
0.69100604136778565 0.58657468060761575 1.9259279110384213 127 143 255 525.035583 400.619568 5
-0.19560128983220082 -0.078154362187199622 1.2036237143081152 255 247 248 323.481659 261.273651 5
18.967423869612716 -31.706640243524159 59.141186078438906 223 255 181 510.105682 84.60289 5
-0.58003088661649382 -1.3315680020919203 2.4040625317412747 190 219 255 293.621796 72.161293 5
-0.45892361586067976 -1.3079197312363264 2.3991224505758737 166 194 220 308.551727 77.1379318 5
-0.30748665776740181 -0.57009102222077623 1.4379958441993281 255 190 213 303.575073 136.85762 5
0.89518929937390324 -0.098392709069188067 1.991444130764064 255 249 249 559.87207 268.738586 5
0.96712689930333262 -0.44553466501752736 1.6116540622814961 241 255 231 614.615112 181.647385 5
0.3834023587657398 -0.3076224841365216 1.8021575904086653 246 255 242 462.827576 223.948837 5
0.22046352053123486 0.68716386116610084 1.5163327473369561 158 164 178 440.432709 460.339264 5
0.58363496780548108 -0.46118315240738106 2.3218077507377917 245 255 238 482.734161 211.507233 5
1.0258507299753032 0.39983423441462107 1.3801595487527374 167 255 135 674.334839 400.619568 5
1.0662829268595999 -0.31551165310192708 1.2684200267957966 191 255 138 706.682983 196.577301 5
0.27559377733119961 0.24977144558353004 2.3255554972012282 128 158 255 425.502777 325.969971 5
0.27672761853810357 0.71311988908552726 1.1750303102403779 255 126 139 475.269196 522.547302 5
0.41986133904251899 0.65996569272424388 1.3364564369752223 127 144 255 505.129028 477.757507 5
0.9823547240584859 0.61981920411560143 1.6490233561946663 176 255 133 614.615112 432.967743 5
-0.40090410869917914 3.4375624940796712e-05 2.4546426216385129 255 247 249 323.481659 288.645172 5
-0.336830551270904 0.66353410478764396 2.9929320569150653 75 83 94 340.899902 378.224701 5
0.55560216523142403 0.63914416757976866 1.6876457342805216 255 126 137 507.61734 432.967743 5
0.55286322460968051 0.57359069029342691 2.2656250885368623 50 66 255 477.757507 385.689667 5
0.7967316889103282 0.49479445680562328 2.4398466209840288 124 138 157 512.593994 370.759735 5
1.0102793005801178 0.54054730229832959 1.3384896445440537 128 145 172 676.82312 442.921021 5
0.99696906087435622 0.60968212921038112 1.4344910888996507 166 255 120 650.944641 453.869659 6
16.351544664991415 -26.976071911840577 48.015082093590166 255 165 192 519.56134 74.6496124 6
27.455375758811819 -29.054460285158214 71.769288787556277 255 208 219 531.505249 134.369308 6
0.41400785522649142 -0.33103258930521484 1.9309127402336133 255 241 243 459.841614 223.948837 6
-0.17160203199266277 0.6669009937060868 1.1393365523171131 148 255 90 322.486328 513.589355 6
0.95550693109958951 -0.23244742047060196 1.5159653748243329 128 149 255 621.084778 223.948837 6
0.97361531151423408 -0.44844770969028991 1.6247304013139345 229 234 241 612.126831 182.145065 6
0.85164176485381859 -0.45032311061974406 1.7027715687951295 221 231 240 576.295044 185.131042 6
0.96765839434826506 0.56867161087525586 1.1978047721854264 125 143 172 692.748413 471.785553 6
0.87949071249054089 -0.093584312721335383 1.9521048917186228 251 255 249 558.379089 271.724609 6
1.0511013873129329 -0.33210538898672226 1.388036147762298 177 202 255 677.818481 194.088989 6
0.56627890964383587 -0.44824472328313503 2.2282206793810566 239 241 245 480.7435 209.018921 6
0.81177131856300044 -0.53189214004547591 1.9970434025070842 241 255 231 546.435181 185.131042 6
0.58174820865388255 -0.49349456315364515 2.0570838628108001 238 243 255 489.701477 197.074982 6
-0.19379372427516817 0.64090792468159252 2.5555516428490277 188 211 255 361.304138 385.192017 6
-0.27739526310404283 0.64753923433983029 2.5329852932569104 75 83 94 340.402252 379.220032 6
-0.35625502536091957 0.73225576292405758 3.7088741852639728 255 76 91 343.388214 364.290131 6
0.4194587009751769 0.67216396559475067 1.3550457766024557 119 131 147 504.631378 480.7435 6
0.94907042590087209 0.59463709931097597 1.5903760419776987 132 149 176 612.126831 432.967773 6
0.82066516517100196 0.63516179294957387 1.7630874645404822 255 129 142 567.337097 429.981781 6
0.81997020360403883 0.69751917034308786 2.0515404357373681 124 137 156 540.463196 421.023834 6
0.17246752616484473 0.10128738417183225 4.5717099760947324 151 172 190 400.121918 298.59845 6
0.79578309610692766 0.55507987323459274 1.9448467595699528 255 125 137 543.449219 397.135956 6
0.58025190503847179 0.64603033460198134 2.5016011623647714 88 255 91 474.771545 385.192017 6
0.67514839677882699 0.43932051365403257 2.0158498831412084 160 255 131 510.603363 370.262085 6
-0.48375494190764634 -1.3190671856346841 2.4097433022756194 255 165 193 307.556396 77.6355972 6
0.18156681755650417 0.69652546490772238 1.2595164475106673 137 160 255 433.564972 505.228607 7
0.85093932788500215 -0.23656112747764002 1.8845744426619619 255 245 246 555.393127 243.656357 7
-0.55510572985861018 -1.3531717974949546 2.4572058076998591 190 219 255 293.820892 71.6636353 7
0.28665828939991256 0.645206195352102 1.6889578529770315 255 147 167 447.897705 437.148163 7
-0.37281240124214898 -0.82965690888247412 2.3125858355764422 233 255 197 326.069519 146.910446 7
0.74321078269841134 0.038019333343160433 1.9499885684695339 187 255 159 530.310852 300.987244 7
0.8758739460386844 0.44980336814759214 1.8965935207295184 161 255 135 566.1427 383.400421 7
0.98068710985440366 -0.44574117196191554 1.6387163555322948 229 234 241 612.72406 182.742264 7
-0.029618659529032421 0.12441009274033665 1.2632136731892665 160 178 198 376.23407 318.903168 7
-0.72676483010525628 0.67729104639798088 6.3582127366739556 77 166 188 340.402252 326.069519 7
1.03706381763969 0.61635643206607948 1.3257311641873537 124 143 172 684.387695 465.813599 7
0.98887885300764455 0.32829748451057683 1.510595769923011 140 255 96 634.223145 372.650879 7
0.99559847958340775 -0.31231828604142775 1.2962667557824128 180 203 255 677.221313 193.491806 7
-1.9368760598207775 -0.53881519991331728 2.6980531650557094 255 92 90 103.91227 211.407715 7
0.55368762891957579 -0.44958434597430874 2.7099694857921213 243 246 255 465.813599 222.157257 7
0.87545662479753883 -0.55533793186031621 2.1026505619881304 231 235 241 544.643616 186.325439 7
0.62579522747979599 -0.53313560571455687 2.2689074041960744 255 234 238 487.312714 197.074982 7
0.47657604105464135 0.67170046498155322 1.1972130355312718 131 148 255 533.894043 505.228607 7
0.55308244742234747 0.70205931569838564 1.44319837005302 163 255 133 530.310852 476.563141 7
0.97866050923156533 0.46727802623197023 1.1980044113173278 255 128 147 695.137207 440.731354 7
1.0188570768920788 0.62700673007075625 1.4617946721401553 124 139 166 648.555847 455.064056 7
0.19572341020299744 0.11348626028926834 4.1472134804034901 161 179 255 397.733154 297.404083 7
0.80541924299889267 0.61659156520928038 1.6921702899291482 157 255 130 566.1427 429.981781 7
0.64085226117311578 0.44638996260701691 1.9747039515320752 127 140 157 508.811798 372.650879 7
-0.48336853174895378 -1.3229670232047663 2.3759491207009908 165 192 220 304.570435 75.2468109 7
