ply
format ascii 1.0
comment Written with hapPLY (https://github.com/nmwsharp/happly)
element vertex 163
property double x
property double y
property double z
property uchar red
property uchar green
property uchar blue
property float ix
property float iy
property uchar octave
end_header
1.2722857331734709 0.33298678957086675 1.4593174888150238 100 255 69 718 376 0
1.023089463129307 0.43519898867787887 1.214061722343972 90 111 255 709 425 0
-0.70435671688943735 0.29289438150814129 1.2209631694984373 255 182 195 163 379 0
-2.0074993977654025 -0.27027437437014734 3.5433678707646123 242 255 238 166 259 0
-2.0119407189403598 -1.0765498750445293 3.5958947197547642 215 226 255 169 172 0
-2.2253914213207473 0.17093038081087475 3.5800221699375601 217 223 255 145 304 0
-1.9115478847571676 -1.2442524785523901 3.4640148997642184 255 193 205 171 151 0
-1.9831065409142701 -1.575555507796027 3.5688982470294901 191 211 255 169 118 0
-2.2039947742158859 -2.3584854068419849 3.6855308286037842 182 255 104 154 43 0
-1.9038849029790326 -2.4228755078287887 3.4954482042253856 255 96 131 175 22 0
-2.2307501375381906 -0.91285041963412228 3.6725806365307756 255 226 229 151 193 0
-2.2867610301596439 -0.19185797457732456 3.7507294521060519 255 239 240 151 268 0
1.378912159574518 -0.13812956707211643 1.5989309817690327 255 135 149 715 253 0
0.17261370318837432 -0.026333406639889603 1.117722622731014 244 245 255 445.200012 279.600006 1
-2.1216623043576828 -2.1503952059903941 3.5870078119480406 187 255 114 158.400009 58.8000031 1
-2.0898581633979076 -1.7975258199760653 3.5341420630350551 166 199 255 157.200012 93.6000061 1
-0.41175293004611868 0.36960897820733463 0.67686616983501635 75 102 109 148.800003 498.000031 1
0.19771610437461007 -0.48604028072102989 1.0969814152097146 190 211 255 453.600006 117.600006 1
-2.1741213604413496 -1.070895847809396 3.5854544385330152 255 214 220 151.200012 172.800003 1
-0.29954268843646692 0.17136169557669387 0.38060872660163991 209 203 255 81.6000061 459.600006 1
-1.4112364492060445 -0.1781585951065901 3.4421138679545584 63 84 255 225.600006 267.600006 1
-1.9526268569402578 -1.1104844037149981 3.5307416960959905 255 202 211 171.600006 165.600006 1
-1.8538072196628912 -0.69522256525800652 3.3458014687868243 235 255 226 170.400009 207.600006 1
-0.2765893071379899 0.45787602443147152 1.3683225398580943 73 77 90 304.800018 418.800018 1
0.28184110484292113 -0.24362641182076472 1.049818072947629 222 232 255 489.600006 199.200012 1
0.36064202332128925 -0.56913651962962386 1.1054616497508138 204 255 158 510.000031 91.2000046 1
0.17124282941561964 -0.30975752042838539 1.0463015965463272 217 227 255 445.200012 175.200012 1
0.19039088140759408 -0.40311858536621303 1.0400058159627494 191 215 255 453.600006 141.600006 1
-1.3138693924343738 0.33471726333562041 3.7620330028924869 155 158 154 252.000015 321.600006 1
-0.74382302597041838 -0.097010884940055608 6.9190226020967227 130 147 152 340.800018 280.800018 1
-2.0074993977654025 -0.27027437437014734 3.5433678707646123 239 242 255 165.600006 259.200012 1
-2.1437760481843138 -2.3508234713452945 3.570240139082693 136 180 255 153.600006 37.2000008 1
1.285405772308122 -0.1334005943604934 1.4924059293266638 255 135 149 715.200012 253.200012 1
-0.42884767601619145 0.44731892445451843 0.67536821739330311 255 3 4 139.200012 543.600037 1
0.19913615394041906 0.050246360356694331 0.42071389794413372 126 145 255 565.200012 333.600006 1
-2.1516408165576029 -1.117630943121988 3.5572758786720047 205 213 224 152.639999 165.600006 2
-0.45073734190162651 0.42819195222102818 1.1193350308977252 255 61 82 227.520004 434.880005 2
-2.3534189316009417 0.17228077056432173 3.7437807055005363 225 220 227 144 303.840027 2
-0.69666616570680784 0.31227178575311432 0.80910765633795689 255 170 166 51.840004 437.76001 2
0.1993954064147937 0.075892549546420315 0.42598121449142001 37 73 89 564.480042 357.120026 2
0.89483769635750787 0.42341540383716902 1.4115148840403615 57 69 96 624.960022 403.200012 2
0.28600366830310897 -0.27894433115393313 1.04090978064869 214 221 230 488.160034 185.76001 2
-0.2744381219879044 0.45163278661097217 1.3227203484201508 255 62 68 303.840027 419.040009 2
-0.49579738930383277 0.31538827690055699 0.67504333429574626 255 73 102 103.680008 468.000031 2
-1.440053236574999 -1.512913923572214 5.7173781841325511 227 233 255 285.120026 187.200012 2
-1.8519873225403409 -2.0952634016793814 6.5077183445872775 197 209 223 276.480011 165.600006 2
-1.764816078329329 -2.0105854110888037 5.9752333708963574 219 255 181 270.720001 158.400009 2
0.28082109739191352 -0.2055214581993024 1.034310660686119 235 255 219 486.720032 211.680008 2
-2.2545374652324504 0.35784648587638723 3.7648529249280882 160 163 167 156.960007 325.440002 2
-1.3598852528402641 0.28307648119870354 4.0535153583510652 155 160 255 257.76001 315.360016 2
-1.1919509643559087 0.058130299653877837 3.7872309049637662 109 111 124 260.640015 292.320007 2
-0.74534657352674705 0.2805547913626637 2.0497673883867691 131 255 92 246.240005 339.840027 2
-1.9231921559622744 0.095929166452637743 4.356071260054887 101 120 255 213.12001 295.200012 2
-0.72898881876078958 0.30002523710359974 1.2601240649427459 180 255 175 162.720001 378.720001 2
-1.4892432519526864 -0.69530800676512783 3.6948278305257167 255 69 87 231.840012 217.440002 2
-1.2189033275261396 -0.98524212418497537 5.3696712178846617 255 216 225 295.200012 217.440002 2
-0.17995559343654643 -0.68209777049490405 5.0264118157262354 160 255 123 370.080017 234.720016 2
-2.1486350796915459 -0.87662921642158087 3.5374910864738043 255 226 229 151.200012 192.960007 2
-2.021819612297497 -1.0855806331218627 3.6055253528094116 206 215 226 168.480011 171.360001 2
-2.1390491317545686 -0.36175387760579225 3.5440989733564043 236 237 240 152.639999 250.560013 2
-1.8390689527743791 -1.836780084493288 3.4549977163587355 155 194 255 177.12001 82.0800018 2
-2.0190230857078806 -1.7910169942916685 3.5926545837988977 153 175 202 168.480011 97.9200058 2
-2.0898581633979076 -1.7975258199760653 3.5341420630350551 141 167 199 156.960007 93.6000061 2
1.285405772308122 -0.1334005943604934 1.4924059293266638 255 134 149 715.680054 254.880005 2
0.27489311430414598 -0.024687637749596335 1.0075830117791262 97 121 255 489.600006 279.360016 2
0.28484402044892454 -0.38012571828675451 1.0495724388454764 220 255 194 486.720032 148.320007 2
0.37682149925079511 -0.5183354296605156 1.0837964954788006 207 255 163 514.080017 105.120003 2
-0.42271501375487652 0.38897348854438613 0.66168463335060201 51 255 28 138.240005 514.080017 2
-0.48545980913419462 0.43765511910837968 1.3154538226496426 255 197 199 243.360016 414.720032 2
0.19610049166971821 0.019233224255491031 0.46124062303072166 107 122 144 548.640015 303.840027 2
-0.43155367837699488 0.30343232127317021 0.71907624708541351 255 190 190 155.52002 449.280029 3
-1.7175564691443803 -1.7563886106581241 6.5940692224739559 227 233 255 285.120026 186.624023 3
-1.2044745854237409 -1.7132560302513049 5.2814695317390949 201 221 255 293.76004 164.160019 3
-1.764816078329329 -2.0105854110888037 5.9752333708963574 200 219 255 269.568024 158.976013 3
-1.4090588546112981 -0.18107839108111717 3.4429983024259387 50 70 91 224.640015 266.11203 3
-0.33462523415594037 0.4942568320372373 2.4423305262455388 255 194 200 331.776031 366.336029 3
-0.43896597507643209 0.30009760522629902 0.55862825472752686 155 163 163 84.6720047 492.480042 3
-0.73564325905308836 0.30204029299843421 1.2658290680173661 180 255 175 162.432022 378.432037 3
-1.4758593622206884 0.078867729376097054 3.3717206250614318 84 101 120 212.544022 295.488037 3
-1.1919509643559087 0.058130299653877837 3.7872309049637662 109 111 124 260.92804 292.032013 3
-1.4892432519526864 -0.69530800676512783 3.6948278305257167 103 123 255 233.280029 216.000015 3
-2.021819612297497 -1.0855806331218627 3.6055253528094116 255 206 215 167.616013 171.072021 3
-2.135929433835964 -1.1250289063498373 3.5570178298640451 205 213 224 152.064011 165.888016 3
1.285405772308122 -0.1334005943604934 1.4924059293266638 255 134 149 715.39209 254.016022 3
0.2861731587357631 -0.24241800563418714 1.043833723552219 222 232 255 489.024048 198.720016 3
-0.55997882246964692 0.29836750497822229 0.68944698083240019 189 189 188 72.576004 454.46405 3
-0.4369949239089419 0.45032946271653862 0.68574016438257313 255 13 22 139.968018 540.864075 3
-0.40546926554036511 0.40945229407538519 1.4488461962584405 101 120 255 273.024017 395.712036 3
-2.1393072090149481 -1.8480250856619842 3.6135717705891439 166 199 255 157.248016 93.3120117 3
-0.40041073544831685 0.42391352838055923 0.8410048783815649 255 130 142 199.065628 481.075256 4
-1.5981248160025725 0.26307383915165594 2.9202277701193662 137 145 155 172.108826 321.408051 4
-0.32595508815052776 0.46814807743384484 2.3506566148368755 255 204 207 331.776062 367.027252 4
-0.82773154150541095 0.22359226596864065 2.4575221046092102 135 138 134 252.979233 323.481659 4
-0.17353623032364096 0.38552964393702532 1.0909355369698484 255 214 216 327.628845 425.088074 4
-1.3425138124278839 0.35598966599686488 1.9433516591314173 165 177 157 116.121613 358.732849 4
-1.2044745854237409 -1.7132560302513049 5.2814695317390949 182 202 221 296.524841 163.814423 4
-1.5076523673862408 -0.19683574976141754 3.6338454393226121 88 255 45 226.02243 267.494446 4
-1.2917846410350551 -0.59227854392918666 3.6071760182169381 220 255 219 246.758438 226.02243 4
-2.0608957684475286 -1.1247301703546786 3.6440211001049279 255 205 214 167.961624 170.035217 4
-2.0869838860796013 -0.348608257374458 3.503865391956269 255 236 237 155.52002 250.90564 4
-2.1062711428117398 -2.1470265692527342 3.5645257542959037 144 186 255 157.593628 55.9872093 4
-1.9743328184038678 -1.3462872282079761 3.6858570348413546 190 203 219 180.403229 149.299225 4
-2.2320385242767431 -1.827608883020815 3.6792166941937157 255 153 174 151.372818 97.4592133 4
1.285405772308122 -0.1334005943604934 1.4924059293266638 255 132 148 715.39209 255.052841 4
0.27865514901116006 -0.28450788304179364 1.0605652815385125 255 215 221 487.296082 184.55043 4
0.37274384021103202 -0.51956737279131393 1.0852238190837786 206 255 162 514.252869 103.680016 4
-0.47088620660706293 0.43094411583670833 1.1367354400924385 97 255 66 226.02243 433.382446 4
-0.41823172173482837 0.41234213667524078 0.89414671932693035 255 120 136 207.360031 464.48645 4
-0.41386721830817486 0.29268684447753895 0.68961726155101588 190 191 255 153.446426 449.971252 4
-0.43650183124425324 0.39430964830777471 0.68222620805491418 52 255 28 138.931213 508.032074 4
-1.8425155746591604 -2.0534089938814626 6.1746192610293251 201 220 255 269.568024 159.667221 4
16.786259683115212 -18.680712673731641 32.978849171506056 192 255 113 578.534485 70.5024109 4
-0.95838492769235972 0.44129802168107024 1.7817344465123708 255 174 182 179.159058 380.713013 5
-1.7166117797003868 0.1976930918992412 3.6812564672845056 79 95 255 201.553955 308.551727 5
-2.0836286405760016 0.11069176663360361 4.0418120662608148 244 255 235 186.624023 298.59845 5
-2.0466190548533776 -1.1192324596523555 3.6207627245942051 225 255 205 166.717468 169.20578 5
0.28670494614507236 -0.24813476936835666 1.0646303918482696 214 222 232 492.687439 199.065628 5
0.29448660789498526 -0.28450108286476034 1.0524284836665061 231 255 216 490.199097 184.135712 5
1.2867973843429681 -0.13297790697912976 1.49563754276493 164 172 182 716.63623 258.785309 5
1.2867973843429681 -0.13297790697912976 1.49563754276493 168 178 187 716.63623 253.80867 5
1.2588216351301633 0.079150377387425336 1.4583714221872566 85 97 119 716.63623 313.528351 5
-0.43744621094499392 0.38880585020757474 0.68393953421417697 255 28 46 139.345947 507.61734 5
0.29588505283014488 0.1625930317367818 0.81020886115905766 46 255 15 522.547302 360.806458 5
-2.0869838860796013 -0.348608257374458 3.503865391956269 240 255 234 154.275864 248.832031 5
1.2311205717300755 0.31577597059707402 1.4190747973509905 68 82 103 716.63623 370.759735 5
-1.4357959275862693 -0.75338648288107424 3.6099764593061638 255 74 93 231.413788 206.530594 5
-0.28048740585883158 0.45692247808923442 1.379333516661994 149 148 151 308.551727 415.5495 5
-0.42571404052160466 0.41361670364637348 0.91100067788582728 154 255 167 206.530594 460.339264 5
-0.3629525239569722 0.49759117682181186 2.515492529366079 136 255 182 330.946594 365.783081 5
15.274417838101042 -10.928938416918353 24.470982052720785 255 67 91 619.591797 116.951057 5
0.16575962755056706 -0.44512563792090332 1.1074322072470775 163 185 211 444.911713 131.383316 6
-2.1978143400540318 -1.9025518230715623 3.6876645879642673 255 137 164 155.271194 89.5795364 6
-2.3074284796608087 -2.2197427257681253 3.7927092216317568 132 157 191 152.285217 62.705677 6
0.33880462793848387 -0.59342181036073405 1.1596055344468734 152 173 202 492.687439 86.5935516 6
-0.39541459360004372 0.35629300072319325 0.62799636322303487 43 47 255 137.355286 507.617371 6
-0.38002863313463009 0.40162315274133159 0.79610782581883943 171 165 255 197.074982 480.7435 6
1.0024105824622531 0.42157027081474985 1.1928137680489133 255 70 85 707.678345 421.023834 6
-0.28245015833018616 0.46123935185848114 0.90946400875824929 28 38 255 265.752625 483.729492 6
0.19898925471244466 0.10061194466869461 0.41824450069855923 255 136 147 567.337097 382.206024 6
-2.0734512417521005 -0.34882209789884189 3.5158055450696351 240 255 236 158.257187 250.822708 6
-1.6020351793902088 -0.21689400373160719 3.748971349651903 255 57 78 223.948837 265.752625 6
-1.2466505443340288 -0.43971387034128118 3.5812575984190431 255 217 217 247.836716 244.850739 6
1.1671190951440793 0.30078758187047483 1.3979111623482037 255 76 88 707.678345 367.276093 6
0.97689963612066211 0.29426336217077576 1.5004206219926173 88 109 140 636.014709 361.304138 6
-0.45249318033860475 0.41469672245249212 1.2691600021043128 194 197 196 244.850739 415.051849 6
-0.48917912904981287 0.31155846796658809 0.6664567021019524 102 114 255 101.523476 468.799591 6
-2.0540913527861844 -1.1244359229634031 3.6237868779259457 206 214 225 164.229156 170.201126 6
-0.23197314828224314 0.40095485122260766 0.70206974985866033 96 255 77 254.405899 501.645416 7
-0.25687458224008353 0.43222269143033704 0.85405649419421192 28 38 255 265.155426 483.729523 7
1.7691626766378756 0.13640851357547956 4.229024236957371 255 113 134 551.809998 297.404083 7
0.19979335853639435 0.098779661103267594 0.41272153389401722 160 255 137 566.1427 383.400421 7
-0.2875335329385702 0.46701195284204333 1.4424599076382807 149 148 151 308.153625 415.649078 7
-1.3802661000913949 -0.70238773373242802 3.4606770259687245 78 94 117 232.906799 207.824539 7
-1.6171628562337261 -1.6782851880289951 6.2162260897179289 231 255 220 286.654541 182.742264 7
-1.5481236163072181 -0.35974204520284009 7.1585301580633613 209 206 211 300.987244 268.738617 7
-0.46747170491414769 0.3038453208264576 0.73858081397384057 195 195 195 136.160904 447.897705 7
-0.39407515135691362 0.38741396441381876 0.85605441014500094 255 138 148 207.824539 458.647247 7
-2.0734512417521005 -0.34882209789884189 3.5158055450696351 240 255 236 154.076813 250.822708 7
-0.37261157091792207 0.35663355066019697 1.5361666504405063 71 255 132 286.654541 376.23407 7
-0.43832473933071281 0.48114910240804221 3.426732082121287 212 211 207 336.819061 343.985443 7
1.3629200498782388 -0.21901975701163989 3.460183776515334 107 129 255 537.477234 257.989075 7
0.28817910548477566 -0.25040757548223935 1.0473256376549887 232 255 214 490.895874 197.074982 7
-2.0540913527861844 -1.1244359229634031 3.6237868779259457 205 214 224 164.826355 168.409531 7
