ply
format ascii 1.0
comment Written with hapPLY (https://github.com/nmwsharp/happly)
element vertex 101
property double x
property double y
property double z
property uchar red
property uchar green
property uchar blue
property float ix
property float iy
property uchar octave
end_header
0.58861003361009057 0.16438186812101785 1.0441434836384582 179 255 140 598.800049 348 1
0.22278624012156456 0.21162694419393258 2.0452323548758669 245 249 252 424.800018 327.600006 1
0.52066988451872209 -0.047532767537285248 1.2963197096135977 251 255 249 538.800049 273.600006 1
0.43723442130204648 -0.089955467883483631 1.0588342161017525 248 250 255 541.200012 255.600006 1
0.6389783138156595 0.30913520926607257 0.88755558370439047 110 129 255 661.200012 423.600006 1
0.72653423245685644 0.52059338888007423 0.84566312497954588 255 122 142 711.600037 523.200012 1
-0.088417538959316033 0.72192269477137394 1.1793561685217373 255 199 202 355.200012 520.800049 1
-0.31047641805792381 0.68812818348488791 1.4809781109037736 255 76 101 303.600006 465.600006 1
0.62431129410970732 0.16371526470194131 0.89876335644939065 255 229 203 651.600037 357.600006 1
0.60680143924581187 0.076302895678719451 0.88448568437925434 245 249 252 648 324 2
0.48157301655295837 0.66993833235558853 1.3398142215990614 153 175 255 521.280029 479.52002 2
0.53116753990602961 -0.014976763162850404 1.2697939968086409 250 251 255 545.76001 283.680023 2
0.49939556926011841 -0.10441010688866625 1.2224565397973315 247 248 250 540 256.320007 2
0.53388410729293678 -0.15123471697677154 1.1011336964800407 247 249 255 573.119995 236.160004 2
0.59980979345456653 -0.022631655604990419 0.97217370070337861 251 255 249 622.080017 279.360016 2
0.49622056971756878 -0.30452513324385899 1.1427686919438695 232 236 242 548.640015 185.76001 2
0.68778527226919683 -0.29828450727497002 0.74473973539555338 231 255 198 738.720032 131.040009 2
-0.20193113551537456 0.73607724662553797 2.0425441596812375 150 167 187 344.160004 429.120026 2
0.73550265353804711 0.53950446781179096 0.85540795028599614 144 255 131 714.240051 529.920044 2
0.11683365167985205 0.71613896514526676 1.0643436807179514 255 229 229 427.680023 547.200012 2
0.69459429959732377 0.048704699355121783 0.77194006854594832 117 255 91 730.080017 311.040009 2
0.59971467662207822 0.53932730138527152 1.0047792587036488 255 229 229 615.16803 494.208038 3
0.057380829349087614 0.69615179299644048 1.9663327018759063 255 15 38 395.712036 423.360046 3
0.56573166812883668 -0.32113128852297268 0.99599304994534243 255 228 233 599.616028 164.160019 3
0.57001646219253543 0.67388275719839363 1.0104271220530006 134 163 255 601.344055 540.864075 3
0.37075608084730116 0.69596110352430873 1.4755377804795957 136 255 135 478.656036 468.288055 3
0.42086283882334707 0.70294112049627189 1.5635208749065121 255 162 163 487.296051 461.376038 3
-0.38304489702938849 -0.80825313752348094 1.2578718534116513 170 188 255 269.568024 41.4720039 3
0.56505468401710446 -0.061051147980599629 0.90413652315144066 249 249 250 620.352051 262.656036 3
-0.087581962560454141 0.70574392903597549 1.1540374564307694 192 255 179 354.240021 521.856079 3
0.65009506066298228 0.53145697382455892 0.83150205485342354 174 255 126 686.016052 535.680054 3
0.093191072284589893 0.65386709161756418 1.5374619999424857 95 255 85 406.080048 452.736053 3
0.54601904557885494 0.02112094730415659 0.87108296328278545 251 255 247 622.080078 295.488037 3
0.46758012449925612 0.089999898856887417 1.1770579879250498 255 163 178 535.680054 317.952026 3
0.064259030124946381 0.74050705474727341 2.104615110644124 20 34 50 396.057648 425.088074 4
-0.3306328341736462 0.47373046477187608 1.4727102567154873 185 255 59 298.59845 412.646454 4
0.38491087548468594 0.62937980956175044 1.4766463552864373 255 126 130 483.148865 449.971252 4
-0.37027952246822693 -0.78703589550289244 1.2211552342754111 255 196 208 267.494446 41.4720078 4
0.56038503118708904 -0.14660992191218286 1.0187234496634305 248 249 255 593.049683 232.243225 4
0.49753853544162241 -0.12726376625809538 1.2610232583256078 255 244 246 539.136047 248.832031 4
0.73913899585234666 -0.45318056696863562 0.91105352449743915 224 255 183 694.656128 95.3856125 4
-0.31510035492770605 0.71204915343538311 1.5223936288959852 66 97 118 300.672028 466.560059 4
0.56169766046955671 0.32758327005992444 0.91618986745984632 214 255 209 622.080078 427.161652 4
0.70378526268660346 0.50972685830238595 0.86951819408976139 130 147 177 696.729675 510.105682 4
0.087381062034450618 0.63723484054179536 1.4978732280337326 88 91 95 408.499268 452.044861 4
0.56629879467675237 0.1536758694437742 0.982611027836227 175 191 255 605.491272 348.364838 4
0.56641514603948817 0.021974221720111098 1.0325895921627142 249 251 255 597.196899 298.59845 4
0.61222717491919321 0.1157434751619324 0.84072186748105437 241 246 255 665.625671 340.070435 4
0.5265241186218157 0.031619500422614077 1.300820607504984 255 247 249 539.136047 294.451233 4
0.032625473586333609 0.19093732656986434 1.8348539591488562 224 255 159 390.66629 325.969971 5
-0.36299191174980505 0.83312905041527008 3.9599805047021697 143 178 200 348.364838 365.783081 5
0.41283672395965065 0.67610557886495415 1.547650189709012 255 160 161 487.710785 460.339264 5
0.49681678139034613 -0.30801249295896183 1.1297140767868754 236 242 255 549.918823 184.135712 5
0.69751403010600543 -0.025469887750911302 0.87117547592828615 255 249 249 691.753052 276.203552 5
0.71921765341820643 -0.077223455129964091 0.81794908069160055 255 96 105 719.124573 251.320358 5
0.69647402070859976 -0.42980598306376483 0.8529569773045953 186 205 225 696.729675 94.5561752 5
0.50999328087683171 0.72058662065513268 1.4571485227536529 179 255 138 522.547302 477.757507 5
0.128889032397697 0.16568078732228059 2.8650198383436658 242 247 250 400.619568 311.040039 5
0.5325992696798767 0.02472346841693529 0.95945804918456545 249 251 255 597.196899 296.110107 5
-0.31006151385278269 -0.18621308963503658 1.1249467148022365 191 255 156 278.691895 223.948837 5
0.095259071291114994 0.66707462979544363 1.5731356724046668 85 90 94 408.084534 450.385986 5
-0.31200538902490305 0.69707358912410589 1.4955402677390346 92 114 255 301.086761 465.315918 5
0.56006305026911107 0.46737751155623986 0.92386081909951834 224 224 255 617.103455 480.245819 5
-0.33996733462689477 0.72843670995186549 2.8080191566602348 255 128 170 335.923248 388.177979 5
0.73233732337403512 -0.45393577311453126 0.90697019257145861 255 183 203 695.734375 95.551506 6
0.006383932461671904 0.65097713629456244 1.2657641247821028 47 55 53 388.177979 486.715485 6
0.63657537026400868 -0.35589865035965373 1.104203502301571 229 238 255 609.140869 164.229156 6
0.35508471876831016 0.26365043700307711 2.1074454842787373 252 255 245 450.883667 334.430267 6
0.18250662550710084 0.18877180549321715 3.1012079224769131 242 247 250 400.121918 310.542389 6
0.097751795130100128 0.75780192687191583 1.876032284724662 75 255 60 406.093903 447.897675 6
0.57999130266198096 0.11199605735667778 1.0112319068428732 252 255 245 606.154846 331.444275 6
-0.30982027651484589 0.71678638096642822 1.5159189722368254 44 59 255 301.584442 468.799591 6
-0.20235117707551531 -0.13121946026747444 0.23711268169818389 11 66 88 56.7337074 74.6496124 6
0.51341306554139399 0.58024719798928082 1.0474360978830397 208 205 255 573.309021 504.631378 6
-1.9394389137710419 0.82747714988690491 2.2621783822988153 0 66 93 56.7337074 424.009796 6
-0.11711106019676487 0.69311022524475052 1.7629854530893807 159 180 255 361.304138 438.939728 6
-0.20335970351161681 0.74051925069919022 2.2143297104566004 182 255 142 346.374207 418.037842 6
-0.2143543219133246 0.56851846196122791 2.320258823391165 155 185 255 349.360199 379.220032 6
-0.23678891092074128 0.50461327852949389 1.8917847718141791 167 189 255 337.41626 388.177979 6
0.59027021667070856 -0.35375064865344141 1.0202408778601857 232 239 255 609.140869 161.243179 7
0.57895178711178485 0.1107466147806947 1.0131972893000638 249 252 255 609.140869 329.65271 7
-0.30448714328168158 0.70801360624812226 1.4829321853145663 24 38 53 300.987244 469.39679 7
-0.20250298110371467 0.019258511379994792 0.27383906590121754 113 144 158 96.745903 318.903168 7
0.54354295777631201 -0.047345791953009864 0.99243619582528364 251 255 249 594.808167 268.738617 7
-0.13167019136648772 0.72321392193106082 1.8612584443179028 166 185 255 361.901337 440.731354 7
-0.2090863934329823 0.73190822752228346 2.1679663045687114 255 122 140 347.568604 419.232239 7
-0.22563316968250469 0.58303068450787843 1.7385930390523257 131 152 174 336.819061 412.065887 7
0.41145198750338419 0.75350071424666565 1.6032912140002429 141 142 138 480.146332 469.39679 7
-0.29001264951618833 0.61143863917862407 2.329105268418739 102 163 190 336.819061 390.566803 7
-0.078724667087349154 0.48907437864958769 3.0923353801419768 139 175 196 372.650879 347.568604 7
0.26837811909494058 0.20247528284110372 1.4486959972570395 255 243 244 447.897705 336.819061 7
0.11484682549523262 0.80706189543397966 1.9998096895006556 61 69 76 408.482697 447.897705 7
-0.17240464570671765 0.70818306088586613 1.2452405618596156 155 177 255 329.65271 505.228607 7
-0.19135539514449862 0.64065441805802692 1.2297854485439492 94 255 69 326.069519 487.312714 7
0.52083453454291084 -0.15615770351393604 1.0442376259295543 245 248 255 573.309082 229.323624 7
0.51463317779754281 -0.33633864599252483 1.2200836784913704 233 236 242 548.226807 182.742264 7
0.32561688828980051 0.25125299503239118 1.7659440586812654 247 255 241 458.647247 347.568604 7
0.42903927797649577 0.73832047281761015 1.6752706106232154 133 133 130 480.146332 455.064056 7
0.74620273955972038 0.53098231990064115 0.94301476594885525 255 129 147 695.137207 505.228607 7
-0.37666917662895916 0.41034860893451186 1.8905664165995208 111 172 196 300.987244 365.484528 7
0.59395525193918841 -0.37898322491487813 1.4288123655726741 232 236 242 544.643616 186.325439 7
