ply
format ascii 1.0
comment Written with hapPLY (https://github.com/nmwsharp/happly)
element vertex 163
property double x
property double y
property double z
property uchar red
property uchar green
property uchar blue
property float ix
property float iy
property uchar octave
end_header
-0.78226097790026961 -1.7309090089654908 4.7639627962361528 188 208 227 320 148 0
-1.2495950272047489 -1.9743350830796631 5.2450556700084849 200 213 226 292 145 0
-1.6590885329410474 -1.5345645430914527 2.85863601610489 161 185 213 160 82 0
-2.1121607115574657 -1.3217121778493668 3.7013060061961278 255 209 219 163 151 0
-1.668226877151282 -0.3150663263817205 2.87797638338232 255 241 243 163 247 0
-1.6607772391835054 -1.3874204983278859 2.8605071101239306 184 200 219 160 100 0
-1.4039344082459499 -0.74039732078714171 3.1455388134573887 145 255 102 214 199 0
-0.50067240344798547 -0.08151310560395586 3.9854925357086435 45 62 255 333.600006 279.600006 1
-1.1433158567108217 -1.7527338482777721 4.7087969878264895 200 213 226 292.800018 145.200012 1
0.27157151213338326 0.48686570243638461 1.3058352878937578 255 126 140 463.200012 430.800018 1
-0.48432485692476401 0.39632602135586215 0.95420031792687343 156 60 255 189.600006 447.600006 1
-0.47924046218354688 0.34857517058625409 0.98333414647385675 255 29 47 195.600006 423.600006 1
-1.5765593826800441 -0.18845631772743265 3.8065826536163456 122 144 255 225.600006 271.200012 1
-1.5773138802462543 -1.0421710541589151 2.7385195680245236 218 229 255 165.600006 141.600006 1
-1.3823231041467636 -1.1211972484073283 2.7072804324638517 208 224 255 189.600006 129.600006 1
-1.3359697673650826 0.35204849847414904 2.6211696509018449 178 192 255 189.600006 340.800018 1
0.72522876824116866 0.48382117571315936 1.6833315616912725 146 160 255 549.600037 400.800018 1
0.60112909910672752 -0.46013264989714708 4.459835480853334 255 172 208 435.600006 249.600006 1
0.64834295618546656 -0.57794522978143048 4.2146713541001724 244 255 238 442.800018 235.200012 1
-1.5912555468815497 -0.014719636077260928 2.7687781966770038 255 245 245 163.200012 285.600006 1
-1.4520481107423446 -0.21399224190931365 2.7477798940849598 244 246 255 181.200012 256.800018 1
-0.58811390843512168 0.49859111713056131 2.9836861441909219 255 219 223 307.200012 351.600006 1
-1.0234054236029086 -1.554087887591368 5.3563563182071938 209 221 234 312 177.600006 1
-1.6461347921509777 -0.92672652481331075 2.8296030705464115 255 211 220 159.600006 160.800003 1
1.1483935614355443 -0.69513116343228809 2.4035428910846415 223 235 255 565.200012 177.600006 1
-0.67946958229632459 0.47844476036037548 1.0283448261645081 170 175 160 132 465.600006 1
0.59535660507475618 0.57053730092495902 2.3869099620025231 174 255 138 482.400024 381.600006 2
-1.3959888953844919 -0.73337887450356698 2.72606947611767 255 228 232 187.200012 184.320007 2
-1.3731777991766672 -0.88811446348266965 2.6962078175093267 211 221 232 188.640015 162.720001 2
-1.6481476948801612 -0.84134132687466667 2.839523299556781 227 235 255 161.279999 171.360001 2
-0.53771396975640084 0.38415497121330294 1.0969749587395263 255 29 47 195.840012 423.360016 2
0.54610783385858586 0.48664488284019469 1.3492485809203729 61 56 255 537.119995 424.800018 2
-1.4037406797742644 -1.2733248232914851 2.7327719579305625 202 220 255 185.76001 109.440002 2
0.68055188800173672 0.47183575472867179 1.6513862239661585 129 144 159 544.320007 400.320007 2
-1.556296506209045 -0.55153124605165671 3.0294513853623481 231 236 241 188.640015 217.440002 2
-1.5865220346051552 -0.59304177553345616 2.7513143779065965 241 255 235 162.720001 205.920013 2
-1.3781251871426368 -0.6592535004910387 2.6879813753897421 230 233 239 188.640015 192.960007 2
-1.4241693014407018 -0.3005071522814845 2.758333755953092 242 245 255 185.76001 246.240005 2
-1.5185137101264035 -0.24443669890719916 2.6587457205105403 245 255 242 162.720001 253.440002 2
-1.3830971543233197 -0.35724163553973415 2.7078414432236868 255 242 243 187.200012 237.600006 2
-1.6326152174451116 -0.4561708113327283 2.822142213461234 244 255 240 162.720001 226.080002 2
0.67091034712227038 0.31837285988259267 0.77318720019036036 94 255 91 718.560059 444.960022 2
0.61246344865358171 -0.52947327557454771 3.9851865300978062 255 238 240 443.52002 234.720016 2
-1.3994927616256088 0.14389457469853195 3.6160383061953407 137 255 101 234.720016 303.840027 2
-0.97200593222772813 -2.0973891974399756 5.7899460195938177 227 255 189 318.240021 148.320007 2
-0.90895758153036432 -0.95800223762286496 1.7593701493772382 148 178 210 188.640015 80.6399994 2
-1.5720581472572848 -1.6751429019898585 2.7282059481479077 203 255 130 162.720001 51.840004 2
-0.058880668092662791 0.49316334854037613 1.0368913966339441 221 222 221 360 472.320007 2
0.12384559922309313 0.44698822324419918 0.97046915726861682 220 219 255 433.440002 468.000031 2
0.27089945597159737 0.48613774468158955 1.3041361021487585 255 126 140 463.680023 430.560028 2
0.12251711429405354 -0.73618053101349501 5.1727960252915235 165 166 255 393.984039 233.280029 3
-1.0013592112629786 -0.15180647981381101 2.9502417090367685 115 255 76 254.016022 267.840027 3
-0.71723603777434208 0.15211136678260506 2.8967055248374329 153 255 156 290.304016 311.040039 3
0.72825175476325599 0.48408944768192863 1.6823311869438906 146 160 255 549.504028 400.896027 3
1.383341246836906 -0.75488929374210467 2.1860549652786556 255 206 218 627.264038 155.52002 3
-1.364638438768579 0.31422789701451859 2.390537265204614 230 219 204 164.160019 336.960022 3
-0.45609103697271869 0.37147589144495186 0.89583142828099427 92 255 147 190.080017 445.824036 3
-1.5811800620316854 -0.30262578621039782 2.7493668645507086 245 255 241 162.432022 247.104019 3
0.53974273013362684 0.48785192487432988 1.1526800396481436 235 235 255 565.05603 452.736053 3
0.065660304407750392 0.32168310572025083 1.062056057231497 173 255 143 406.080048 404.352051 3
-0.47329824627795936 0.4164788295906981 2.4384256443754104 255 208 214 307.584015 350.784027 3
-0.87770571333731917 -1.4262025637180795 4.8568955601315311 255 208 221 311.040039 176.256012 3
-0.7267190116006752 -0.39309689112772234 2.8431998669901137 226 255 225 286.848022 235.008026 3
-0.95076307259107695 -2.035263467022788 5.6272837097883439 209 227 255 317.952026 148.608017 3
-1.6323808482969717 -1.4526434480420656 2.8195672526226083 214 255 164 162.432022 89.8560104 3
-1.551129466079272 -1.7260461460366607 2.7635508047095168 164 203 255 169.344009 48.3840027 3
-1.4121629211610123 -1.0459657639155777 2.7543813349845165 200 213 227 188.35202 141.696014 3
1.184259604928477 -0.6959500253280716 2.4464333685663902 234 255 210 566.784058 179.712021 3
1.0815014098157807 -0.59237568569094445 3.9704802201244682 241 245 255 489.024048 233.280029 3
1.6231064092673027 -0.80664825395458883 2.3626044299538806 255 200 214 651.456055 155.52002 3
-0.22577505929874597 0.47086201281073126 1.242907962858911 105 139 146 312.768036 433.728027 3
-0.46010394516534592 0.48137998513273605 0.97727601874992898 255 51 77 203.904022 478.656036 3
0.25570829920444638 0.45511546684071436 1.2173136882257882 128 142 166 464.832031 430.272034 3
0.2033813294234148 0.4807637482063587 2.180959675059253 255 228 229 419.904053 373.248047 3
-1.284445460048484 -1.9910514835586146 5.3539267529950427 200 213 226 292.032013 145.152008 3
0.58563472069338263 -0.46671864817348219 4.3461672197067465 255 170 211 435.456055 246.758438 4
0.60883002405929321 -0.53167834693312388 3.8961245943453431 255 238 240 443.750458 234.316833 4
-0.44471198149141422 0.32760420786447764 0.90597626020634214 42 65 30 196.992035 425.088074 4
-1.3486583334771702 0.14419525155983998 3.4664220444046103 107 125 145 232.243225 304.819244 4
0.59321169536464702 0.35471116357832316 2.9295002654443967 152 255 111 458.265656 333.84964 4
-0.45958729827408829 0.39688313274888232 2.4744502996571032 208 215 221 308.966431 350.438446 4
-1.5869239013954481 0.37869192466316032 2.8099325893778762 179 255 156 170.035217 342.144043 4
-0.91860946367027463 -0.13685774562752928 2.7616642648013032 74 94 114 252.979233 267.494446 4
-0.73152515168560273 -0.38818487760868725 2.8516753489557178 226 255 225 286.15683 236.390427 4
-1.6321641761324259 -0.46549973416901358 3.7846425064716742 255 103 120 219.801636 236.390427 4
-1.3620668899604458 -0.67296909312034159 2.8082427778809573 255 229 233 199.065628 196.992035 4
-1.4421396709447842 -0.8330453839450811 2.7866018781050235 234 255 218 186.624023 172.108826 4
-1.5547247167854463 -0.80180420080150083 2.6929939520299628 227 235 255 161.740829 172.108826 4
-1.4276932034149592 -0.30190015166408418 2.7606121706164699 240 242 245 184.55043 246.758438 4
-0.90513883054307875 -1.9266303828967724 5.3702459872195822 255 189 209 319.334442 149.299225 4
-1.3990791047428313 -1.4789215216628953 2.7176764577823906 210 255 148 186.624023 80.8704147 4
-1.5317393235297718 -1.7227084045589467 2.7364107104031516 163 202 255 165.888031 45.6192055 4
1.3176327269104615 -0.83341167907360048 2.4178570065366336 230 236 255 593.049683 153.446426 4
1.5185625725821867 -0.75234818682853777 2.1956944360809918 255 203 216 651.110474 157.593628 4
-0.36134044868370907 0.47024225785565199 1.0604414294265565 98 125 126 252.979233 460.339264 4
-0.31611335056228396 0.43314108615688257 0.8380353922372179 90 255 61 238.464035 485.222473 4
-0.17114083404250224 0.3154326801165056 1.1708815398040984 255 121 125 323.481659 391.910461 4
-1.1286088545553983 0.46297670469953112 1.4034614469512818 153 255 154 74.6496124 414.720062 4
0.66651485737296146 0.1382395468880426 0.7635141853834766 141 156 255 717.465698 356.659241 4
0.52787052767169607 0.47189320339532465 1.4523493923745328 117 255 101 522.547302 412.646454 4
-1.4523933085336567 0.36409330152307789 2.8445615024756687 210 215 255 189.11235 338.41156 5
0.52618035015991427 0.48152354513688111 0.99482107213728632 255 133 144 587.243591 472.780853 5
0.51612220388883767 0.46462089923556016 1.0858630271216403 233 234 233 564.848694 450.385986 5
-1.8060096740480223 0.39668735225051532 3.1497251936399548 227 216 201 164.229141 335.923248 5
-0.83361592705397491 -0.56770082599360083 3.0954436724701502 228 229 229 276.203552 221.46051 5
0.1045312591524552 0.34271718038739413 2.4951719792048359 255 198 213 403.10791 345.876526 5
-1.4037899495863755 0.15276106077197887 3.5891490982080718 119 139 255 233.902115 303.575073 5
-1.2544859790865464 -1.9359316428297213 5.2546258676022717 255 211 219 291.133484 144.322586 5
-1.566802782777807 -1.7522757821549113 2.7967715793095094 163 202 255 169.20578 47.2780876 5
0.66018715582076204 0.10491528251846888 0.75560623200685439 255 107 118 719.124573 338.41156 5
0.65129054733967806 0.1358597790525381 0.74529571941245143 255 136 148 719.124573 355.829803 5
-0.22665718621322029 0.45414693336608064 1.2146715414069447 151 154 255 313.528351 432.967743 5
-0.9789036939888236 -0.14956356065210746 2.8748365678939831 98 116 255 253.80867 266.250275 5
-0.44167493068803698 0.39436411717272341 0.91963915277640029 255 96 127 199.065628 450.385986 5
-1.2735600709213721 0.44806652908200489 1.6145252990193635 255 209 218 79.6262512 393.154602 5
-1.318107579232517 0.21546628705409437 2.6978988505967405 179 135 131 196.577301 316.016693 5
-1.2799210457400334 0.52182514763089405 1.939857663697341 255 84 95 131.880981 393.154602 5
-1.2245310607645528 0.45414077501704847 3.6565210867336271 71 78 70 256.296997 338.41156 5
15.990977292224869 -19.02634137353478 33.310800996596292 139 173 209 564.848694 72.161293 5
-0.90513883054307875 -1.9266303828967724 5.3702459872195822 227 255 189 318.505005 149.299225 5
-0.91629354508853122 -1.4398561157185039 4.9038657438740749 255 207 220 311.040039 174.182419 5
-1.3014183339935714 0.15202176367764358 3.3196085178426884 130 255 99 238.878769 301.584442 6
-1.3447978410651564 -0.18680667163008466 2.7846930461193646 244 245 246 200.060959 262.766632 6
-1.5541615290154924 -0.29352237521787106 2.7415338766249695 241 243 245 164.229156 247.836716 6
1.2007845106951247 -0.72712640166326692 2.6197288835906498 211 223 234 564.351074 179.159073 6
-1.0338793847668062 -2.0587932917806149 5.8701047853767436 189 209 227 316.514374 149.299225 6
-0.35232174319999077 0.46150284099275213 0.90902109897574856 255 64 97 235.892776 483.729492 6
-0.26434762561508762 -0.055039426186395513 6.3764765869843023 97 117 137 364.290131 283.668549 6
0.52323187549058525 0.49240961060338223 1.0108218640350173 157 255 124 582.266968 480.7435 6
0.58479402210046993 -0.49500891524149704 3.5304696103686721 240 244 255 441.92572 235.892776 6
-0.50354343652907052 0.40482128139382956 1.855007812088481 73 85 255 277.696564 370.262085 6
-0.25045647205776445 0.46762434960064092 1.2704370688887252 152 255 115 310.542389 432.967773 6
-1.1118226592804268 -1.0936475898124227 4.1879568146606436 227 228 228 280.682556 185.131042 6
1.3129019315469561 -0.82871552723235076 2.4369159524292447 235 255 227 594.210938 152.285217 6
0.53240506499276707 0.48155861940015293 1.1390449987022753 234 233 255 561.365112 450.883667 6
-0.33685441168793484 0.46485431603157301 1.1445325157254476 125 255 81 274.710571 438.939728 6
0.54216690767686293 0.52657049471938122 2.3612639397275852 181 255 150 474.771545 376.23407 6
-1.1745615099187949 0.41579775887376597 1.4940886044112638 255 209 218 83.6075668 394.149963 6
0.69949475747900958 0.41408449881827325 1.3175359128213704 255 49 54 591.224915 406.093903 6
-0.35410311129361505 0.48141175058005142 2.6393230898567008 255 207 215 331.444275 358.318146 6
-1.5289311022482956 0.36615389992579228 2.7008867320212264 175 255 146 170.201126 343.388214 6
-0.02915957211919018 0.13020030762438631 5.007247714707761 255 111 130 379.220032 298.59845 6
-0.73661591300969143 0.28924627753275856 3.1496767799214718 255 183 183 295.612457 322.486328 6
-1.0583044124315881 -1.5846107289825584 5.3703010185182647 233 255 206 310.542389 173.187103 6
-1.6016927520724304 -1.0632275581494315 2.7935605765538547 210 218 229 164.229156 143.327255 6
1.1928219152961113 -0.72126650707922324 2.5663856878495936 234 255 212 562.559509 179.159088 7
-0.17542841658622965 0.031999202797712539 4.4827603470109914 117 137 255 365.484528 286.654541 7
-1.5794569690952946 -0.29789736302419656 2.8124432038130558 241 243 245 164.826355 247.239532 7
1.444360822092241 -0.13165653164842467 4.3810980091277676 255 125 136 515.978149 283.07135 7
1.5610041550402458 -0.13967271962252925 4.7514091888613814 247 248 255 505.228607 275.904999 7
0.47398327486270264 0.54698155808390758 1.5543043738906657 93 93 255 505.228607 426.398621 7
-1.098409698376718 -1.100770072068493 4.1612405389664424 255 226 227 279.488159 182.742264 7
-0.89105030503273586 -0.69387595985406936 2.8106008982679378 213 216 255 261.572266 189.90863 7
0.62063937726271723 -0.56286286751362391 4.1354912690590337 236 240 243 440.731354 236.48999 7
0.069780429092938023 -0.52201437389364902 4.6812095443531012 255 9 13 383.400421 247.239532 7
-0.87399042508175961 -0.14422571634161196 2.5927488635273064 112 255 71 250.822708 265.155426 7
-1.0535737418703754 0.43540147875461521 1.5961477405782709 88 100 117 132.577713 394.149963 7
-0.31963729815044761 0.43677612551859746 1.0819728802016861 66 97 105 272.321808 440.731354 7
-1.8581649403662794 0.17510006515960497 3.0038654397799895 247 255 239 150.493622 304.570435 7
1.7962206198289246 -0.87792484342868915 2.6739624931751047 203 217 230 648.555847 157.659988 7
0.66848479165326113 -0.63333377505077348 3.8611468128465951 255 234 238 447.897705 225.740448 7
-1.4647189384878652 -1.0392694516610677 2.77839556700836 228 255 205 182.742264 143.327271 7
-0.95650031246592926 -1.4991445273407797 5.0560992099938922 204 219 233 308.153625 171.992722 7
