ply
format ascii 1.0
comment Written with hapPLY (https://github.com/nmwsharp/happly)
element vertex 132
property double x
property double y
property double z
property uchar red
property uchar green
property uchar blue
property float ix
property float iy
property uchar octave
end_header
-0.6950897248503618 -0.090563677866329934 6.8426603619099158 145 255 131 346 283 0
-1.930191644036606 -0.26235861036750502 3.4482882838158657 240 242 255 169 259 0
-1.7954322015241209 -0.68749321950520215 3.2834304415503914 235 255 226 174 208 0
-1.1614018814767246 -0.42878530352195054 3.4463320319693089 217 218 255 253 241 0
-1.9248076576911228 -1.9035493866565372 3.3074549586832123 137 162 195 160 67 0
-2.1416198628349816 -0.18133794163384676 3.5574084400031265 241 243 255 153 268 0
-2.1111325725671968 -2.3089693304375598 3.5716457660831811 139 183 255 157 40 0
1.3079891168089965 -0.12668218783456608 1.412758001231434 255 50 96 739 253 0
-1.897493919666299 -1.5430909765565306 3.4612940186715471 210 255 173 174 117.600006 1
-0.36689966418723663 0.3867674849234109 0.60989453184034847 69 69 255 153.600006 529.200012 1
-0.38259064729910341 0.39906826647218491 0.793707248724006 255 127 145 199.200012 481.200012 1
0.32717881627436773 -0.23346183770289886 0.97718891440416922 255 208 220 511.200012 196.800003 1
-1.9366359579138681 -1.3526749163705176 3.5153824472149986 219 255 194 174 139.200012 1
-2.0599907597049221 -1.3906074471630157 3.4482512708275683 194 205 219 156 133.200012 1
-0.64649044776493891 0.29192384969930552 1.1642140739315738 255 149 165 171.600006 382.800018 1
-1.3176734420981502 -0.16956476785596677 3.297492367898526 68 87 255 229.200012 267.600006 1
-1.9210440220684073 0.27146122651891502 3.2030230602616623 200 201 198 152.400009 321.600006 1
-1.7704341077317713 0.29084102235552112 3.2457143451122561 255 135 146 175.200012 322.800018 1
-2.1050516763750537 -1.1098366904437706 3.5065484762909609 214 225 255 153.600006 165.600006 1
-1.930191644036606 -0.26235861036750502 3.4482882838158657 240 242 255 169.200012 259.200012 1
-1.8981246573594328 -0.34996855960532147 3.4538437890434208 241 255 236 170.400009 249.600006 1
1.3106410116446909 -0.12896681017440312 1.4224274608285603 255 50 96 739.200012 253.200012 1
0.24580201547157243 -0.47209882863052427 1.030364245865939 255 167 186 475.200012 111.600006 1
-0.7122634150666709 0.36668769378690425 1.0647774197276518 255 125 139 127.200005 421.200012 1
0.24724057457104831 -0.51687245553888306 1.0721710563622158 209 255 169 470.880005 103.680008 2
-1.9517542216926618 -1.5757500539838738 3.5258738382564569 210 255 173 174.240005 116.640007 2
-1.9392385078921333 -1.7601319646502405 3.4934074285321799 255 152 175 171.360001 95.0400009 2
-1.2595537913732153 -0.45148603603216575 3.680155971241259 216 218 218 252.000015 240.480011 2
-1.1509729913742781 -0.55127384008821956 3.3725028646304036 220 222 221 252.000015 226.080002 2
0.34376561089681956 -0.27487435772692309 0.9784599038805375 255 210 218 519.840027 178.560013 2
-2.1516611695597194 0.16389847752172423 3.4674363234730921 227 255 226 146.880005 303.840027 2
-1.8939433971253896 0.096862757046963177 4.3431626680794215 89 106 127 216.000015 298.080017 2
-0.67085711567301964 0.29923394974445899 1.2027099026129109 255 144 159 171.360001 383.040009 2
-0.68942163037754156 0.28159992291182256 1.9881602369968112 89 255 54 250.560013 342.720001 2
-0.37867619082653237 0.45025270639230097 2.5490666181632857 167 171 176 328.320007 357.120026 2
-2.0037359901934568 0.36661030844624715 3.7025116452003317 255 126 140 175.680008 324 2
-1.3383966438843382 -0.72623923611793695 3.4458236319386835 122 255 73 234.720016 205.920013 2
-1.3040248212704797 -1.4345470585344509 5.3749328764379873 227 233 255 289.440002 187.200012 2
-1.9658063614845696 -1.1278144935009262 3.5651865885756129 224 255 202 174.240005 165.600006 2
-2.0471872731508109 -0.35057489574908529 3.4321256303137129 236 237 241 156.960007 249.12001 2
-2.0326609627679204 -2.1069521045503881 3.4779988150867314 255 112 146 159.840012 54.7200012 2
-2.1545066673698434 -1.529044840598581 3.5865148326171186 221 255 206 154.080002 123.840004 2
1.3106410116446909 -0.12896681017440312 1.4224274608285603 128 255 46 738.720032 253.440002 2
0.34271027851208746 -0.23408171628681623 0.97860695479305848 232 255 209 518.400024 198.720001 2
-0.37984670022968103 0.4045941724759452 1.1528978276628259 204 207 205 256.320007 421.920013 2
-0.44248397642043802 0.31587993828722466 0.62754182241447964 255 83 111 115.200005 483.840027 2
-0.39798754087610022 0.33559057096147626 0.57757964737378453 78 104 111 116.640007 511.200012 2
1.2954951982340079 0.32606913762516049 1.400197017074849 117 255 56 738.720032 375.840027 2
-0.38407973041636967 0.29943208175327152 0.50960811612289203 255 190 192 95.0400085 514.944031 3
-0.39323398235194129 0.30371175537977185 0.52138429969292466 163 163 255 93.3120117 513.216064 3
-2.2648407908976651 0.17311170187370845 3.6368166061886753 224 255 225 146.88002 304.128021 3
-0.34862318624144728 0.40619280484019926 1.3825585160309704 136 255 130 286.848022 400.896027 3
-1.4304367489081939 -0.18758485453753915 3.5417866265484208 55 73 93 228.096024 266.11203 3
-0.22064705352631164 0.4522810457359342 1.3004015762832111 65 82 255 317.952026 423.360046 3
-1.6093974767137533 0.085818365655042139 3.6855151878606485 122 255 85 214.272018 298.944031 3
-0.64089800829849652 0.28842094258322998 1.1484510686220175 255 162 175 171.072021 381.888031 3
0.1826850276149814 -0.63219970225551403 4.3732129224895209 182 255 73 402.624023 235.008026 3
-0.12639357610834456 -0.65212262800550413 4.8497548933578107 148 173 255 373.248047 235.008026 3
-2.0784574059946288 -1.1126188163433584 3.4914340016007408 255 205 214 155.52002 165.888016 3
-1.8290314974017567 -0.22547522949241586 3.4882453157850941 255 240 241 183.168015 264.384033 3
0.33063971676971515 -0.23475507202822077 0.97840031482561352 255 209 220 511.488037 195.264023 3
0.33102800379992736 -0.26973238760533452 0.97348764495091844 230 255 213 518.400024 181.440018 3
0.44971416434445893 -0.3815543724942117 0.97755604322961398 216 255 181 558.144043 136.512009 3
-0.3675553431525902 0.29828365686547176 0.65650698576989464 255 198 198 171.072021 459.648041 3
-0.39997617118025697 0.33634960223625859 0.57928680517735598 96 105 255 117.504013 509.76004 3
0.24705719897210698 0.051182673119587449 0.36609369580032958 52 105 131 644.544067 342.144043 3
0.24676174219009228 0.076258576205597256 0.36951672018922033 255 49 101 639.360046 368.064026 3
-1.7169228898556232 -1.9944484992022402 5.9182885472935167 255 185 202 271.296021 157.248016 3
-2.060365143157223 0.1210177128211859 4.0363066274747528 235 239 244 188.697632 298.59845 4
-0.27040261973939761 0.46371561398468308 2.2676723379711659 202 168 255 337.996857 369.100861 4
-1.6601121205954876 -1.7381576763155699 6.5052165966955737 223 227 233 288.230438 186.624023 4
-1.3095464984889098 -1.882744409433543 5.7866936395085418 183 202 221 296.524841 161.740829 4
-1.4160483403489237 -0.18770690551906821 3.4956456386502208 55 74 94 228.096039 267.494446 4
-1.2199116774282768 -0.57795336697732935 3.5006391988989569 221 255 220 250.90564 226.02243 4
-1.9468158147682879 -1.0898433881437681 3.4967607628951107 225 255 204 170.035217 167.961624 4
-1.6828896792856787 -0.20242158679572542 3.2736039697806065 239 240 243 184.55043 263.347229 4
-2.0299814495080217 -0.34164900569854295 3.4384785093275623 237 241 255 157.593628 250.90564 4
-2.0740985814559312 -1.821659916699423 3.5400456501220434 255 142 168 159.667221 89.1648102 4
-2.0176719746941951 -2.1036220358671884 3.456262003669897 255 111 145 159.667221 53.9136086 4
0.97260363826982343 -0.75727533442671269 2.7714798358353261 230 255 211 518.400085 180.403229 4
0.32693939103341951 -0.27394648513756931 0.98494431857414089 214 221 230 512.17926 182.476822 4
0.32088866755977286 -0.021492845450979681 0.94127838387634588 150 255 49 518.400085 279.936035 4
0.33116183346386596 -0.021450439485700898 0.97474663685051621 83 118 158 512.17926 279.936035 4
0.33418829829172081 -0.62073402391377208 1.1278725799452851 161 197 255 493.516876 76.7232132 4
0.25365894261964439 -0.51093238398267005 1.0493792888631639 161 180 207 476.92807 97.4592133 4
-1.7169228898556232 -1.9944484992022402 5.9182885472935167 255 189 204 271.641632 159.667221 4
-0.22419199150420233 0.45109678237129591 1.3099153604286733 92 97 117 320.993317 420.526154 5
17.380602841677398 -12.465132329295598 27.9344801633382 255 149 172 619.591797 116.951057 5
-1.6796335185830484 -1.9378055441603435 5.7962884105028794 255 189 204 271.226929 159.252502 5
-1.3621392436228179 -0.73645658913439171 3.5045518121944506 90 114 255 233.902115 206.530594 5
0.39077089175459478 -0.76337236991827462 4.0536901788132571 255 223 229 415.5495 216.483871 5
-0.38036210608454857 0.38578159185735428 0.6304045690757405 255 34 53 151.787537 525.035583 5
0.2788012567206879 0.34277139929164235 0.9744043588217135 10 255 0 490.199097 423.014465 5
-0.86819899632178044 0.4125368641251051 1.2634177737554833 152 139 255 121.927696 418.037811 5
-0.35910240986913866 0.29214183176376929 0.63906910566424635 188 189 255 169.20578 462.827576 5
-0.360211929551707 0.40803852131412294 0.83537111994871838 176 255 177 218.972198 472.780853 5
-0.4283533246312603 0.43649571829424727 1.1107796480068775 185 255 186 238.878754 437.944397 5
0.33585344725521971 -0.23712493254598993 0.98353013800944367 218 231 255 517.570618 196.577301 5
0.34033249349666561 -0.27554926917208461 0.98650228765310555 255 214 221 515.082336 181.647385 5
-0.38631560411292676 0.3001055195007542 3.2503358977938417 127 255 84 338.41156 323.481659 5
-1.9647519421232582 -1.0960766529586605 3.5193327679330095 255 204 214 171.694107 166.717468 5
-0.77812199824564487 0.22742002765470179 2.4104417347179652 192 255 194 262.766632 328.458313 6
-0.30726622406744175 0.49281080629172153 2.4320561561034051 180 101 255 337.41626 367.276093 6
-0.31445606403397108 0.37006781138494066 1.7935053553966163 106 126 255 313.528381 364.290131 6
-2.1097659767492529 -1.8650820522119191 3.5800790785651144 199 255 140 158.257187 86.5935516 6
-2.1892449014629234 -2.1555565808535797 3.6450760948511234 255 128 155 155.271194 59.7196922 6
-1.2243670465384096 -0.17260215537456719 3.0201345521055498 99 255 64 226.93483 265.752625 6
-1.1562779111879262 -0.42190492718059835 3.4183234303610597 219 255 219 250.822708 241.864746 6
0.9272036143251503 0.42113604914174518 1.130746429073568 255 83 102 695.734375 432.967773 6
-0.22572825588838996 0.45516946212279374 0.84821407191279863 255 32 42 283.668549 495.673431 6
-0.36821959490066769 0.409697556731067 0.85327137575634771 187 180 255 217.976868 471.785553 6
-2.0299814495080217 -0.34164900569854295 3.4384785093275623 236 237 241 152.285217 250.822708 6
-0.39415297979438479 0.41039409771038582 1.2043669142361453 204 207 205 256.794678 421.023834 6
0.17748428323659848 -0.070759153704512578 1.2020997274209984 242 243 245 444.911713 262.766632 6
-0.20069193706119259 0.42652271449741785 0.79504303199903492 255 26 36 283.07135 494.479065 7
0.2426189745935583 0.1033138974249932 0.37736127710206735 86 112 255 637.806335 394.149963 7
0.42789023691710892 -0.48668563010630095 1.0063493565625374 152 175 205 544.643616 103.91227 7
-1.256157393611864 -0.41871996525419208 3.6218268502361135 218 255 219 250.822708 243.656357 7
-0.43631902560930236 0.31298032215416371 0.62040204110287189 125 255 81 114.661812 483.729523 7
-0.33774736883928891 0.38463535241472852 0.80025813855479133 176 255 177 218.574081 472.97998 7
-1.4771042949112414 -0.21447404090038913 3.5139311619009534 114 255 73 214.990891 265.155426 7
-2.0698039448860261 -0.49812758215305297 4.3945523019286963 98 113 133 204.241348 240.073166 7
-1.9789989459365245 -0.33691908951963812 3.3988246187077613 237 241 255 157.659988 250.822708 7
-0.41057534976481391 0.30220141730589672 0.68529726579582295 199 255 199 150.493622 458.647247 7
-0.37205074345259859 0.38570567466665473 0.97147581838651664 198 198 197 236.48999 433.564972 7
-1.3393297163205307 -0.71017525167893303 3.4303263599084839 66 85 109 232.906799 207.824539 7
-1.8284493219481162 -1.8971877622796118 7.0377085557905144 233 255 222 290.237701 186.325439 7
-0.2774238136099525 -0.43565374445178595 4.1024395396954034 149 255 128 354.734985 247.239532 7
-0.23172813628496192 0.46156087731840029 1.3743502471356257 142 255 105 322.486359 419.232239 7
-0.31740003903703218 0.35463185256002649 1.4727747559785984 158 77 255 297.404083 379.817261 7
-0.38741482163322116 0.48195368501809854 3.3622463995464491 210 210 208 340.402252 343.985443 7
-2.1133886534000705 -1.7708678110076703 3.532150003991064 202 255 150 154.076813 96.745903 7
