ply
format ascii 1.0
comment Written with hapPLY (https://github.com/nmwsharp/happly)
element vertex 176
property double x
property double y
property double z
property uchar red
property uchar green
property uchar blue
property float ix
property float iy
property uchar octave
end_header
0.35648044316213456 -0.1947558472424748 0.9524237593517495 224 234 255 529 208 0
-1.8823583910997237 -0.64288947117649997 3.4502339021710693 255 225 230 175 217 0
-2.1497232462045321 -0.9069223954614235 3.5929450528572717 235 255 227 154 190 0
-1.3701778872191754 -0.58423310812162765 3.5384347810304808 255 86 100 235 223 0
-1.985364463575138 -0.57585447531399581 4.2222133171137415 142 255 117 202 235 0
-2.0395414032979993 -0.95399842537061019 3.4270627232858755 232 255 222 154 181 0
-2.073904585812262 -1.1087117251396332 3.4759114257025807 215 227 255 157 166 0
-0.92308919393832078 0.33611098223004215 1.6048098712209338 255 71 77 163 370 0
-2.0283007870050898 -1.3894513068842915 3.4178868460991114 219 255 196 154 133 0
-2.0779660807672511 -2.3077995959187776 3.5419837530984464 105 140 184 160 37 0
-1.9316831915314387 -2.6561028368432247 3.8529767288316696 135 182 255 193 25 0
-1.0062028749231984 0.074471534883368939 3.3735506562887818 255 83 98 271 295 0
-1.3846738893810304 -0.17918758799237045 3.4728289872848288 61 81 99 232 268 0
-2.1121329161488172 -0.1802366560516151 3.5259770224256455 243 255 241 154 268 0
-1.8920054776851631 0.27265544022245047 3.1714315932165671 197 196 255 157 322 0
-0.37921397069310681 0.32722879202338601 0.56226001811773485 255 73 103 123.600006 511.200012 1
-0.36300870624649351 0.28868073302407399 0.53460051259284025 255 84 112 123.600006 495.600006 1
-0.11135686452705795 -0.66025451452640072 4.8843362599097082 255 120 137 375.600006 235.200012 1
-1.7883259032844263 -1.8587898988047706 3.4087175342805747 196 255 126 182.400009 79.2000046 1
0.36312806289686583 -0.26644629048486757 0.94448533339228824 220 230 255 529.200012 180 1
-2.1227080810302059 -1.5279397144537816 3.5561735305724995 207 213 222 156 121.200005 1
-0.34251603346153892 0.42730986623331491 0.84200998132037408 205 255 207 226.800003 482.400024 1
-2.0566407023172011 -1.0477350966720667 3.4502724373319622 212 219 228 156 171.600006 1
-1.8655520183131094 -1.5416417190912473 3.4312090685903991 255 173 190 175.200012 115.200005 1
-1.9714721201658643 -1.7612768408747217 3.3991208653546057 145 169 201 160.800003 90 1
-1.2879606295977508 -0.16724481862642726 3.2668362064933065 255 59 79 231.600006 267.600006 1
-0.61554533500516229 0.29366706200185078 1.1338212443677007 255 154 170 175.200012 385.200012 1
0.26767791587424439 -0.49810264756010514 1.0153151131702436 255 166 184 487.200012 99.6000061 1
-1.1009547343076429 0.34819167536902867 1.4829127752553064 130 150 140 100.800003 379.200012 1
0.081782660434362775 0.44529780506619054 1.1736658948100613 255 214 215 411.600006 434.400024 1
-1.9004603945635377 -0.26097908972649025 3.4171245778230928 243 255 239 170.400009 259.200012 1
-1.4462902508779329 -1.5622860702256145 5.9382420510123621 227 233 255 289.200012 186 1
-1.4532584183775299 -2.1791317974456548 6.5160289024069824 222 255 185 298.800018 160.800003 1
-0.66889653846000696 -0.084268650128078354 6.8125298054656671 119 133 150 344.400024 282 1
-1.8672424158306837 -0.78124180735344861 3.8431530536866898 201 255 223 198.000015 208.800003 1
-1.9515060796411277 -2.3664846983830179 3.500877756931116 255 105 138 171.600006 27.6000004 1
0.27146065033737421 -0.1412545967860826 1.0213331553381126 255 227 231 487.200012 235.200012 1
0.1044720213501209 0.4548583579966658 0.73688158608117371 255 99 110 439.200012 525.600037 1
-1.8313723736955434 0.3998201279745916 2.123123591593159 255 129 138 51.840004 362.880005 2
-1.859139507712452 -1.3231766958903695 3.4057805942176085 195 205 220 172.800003 138.240005 2
-1.7981847218298332 -0.93051875530091044 3.3341885774903637 255 216 222 175.680008 180 2
-1.9346842624050917 -1.1263998139034423 3.5346968099936493 226 255 206 174.240005 167.040009 2
-0.6399613609257031 0.30096625909583119 1.1722878585112428 167 255 135 174.240005 385.920013 2
-0.37472043638899355 0.37548199284153172 0.90408135401382062 198 255 198 226.080002 447.840027 2
-0.71209318156678258 0.26749477484242745 0.81862848717626746 255 153 158 51.840004 411.840027 2
-1.4009254392672976 -0.18526127099027373 3.5110376291569891 255 59 79 231.840012 267.839996 2
-2.4826773123436268 -0.29917306908536068 5.5165058735775672 126 255 85 210.240005 267.839996 2
-1.8656892685609723 0.099035088195761067 4.3117389640103267 129 255 90 218.880005 298.080017 2
-0.68775120077439778 0.15095224060807791 2.2902514833887353 150 255 107 266.400024 312.480011 2
-1.4190940602786197 -2.1339861210088316 6.4044479285060278 221 255 184 298.080017 159.840012 2
-2.05076061433491 -0.86557544305613698 3.4278008213909277 255 227 230 155.520004 190.080002 2
-2.102951980762529 -0.98796772901987606 3.5330207695406903 232 255 222 154.080002 181.440002 2
-2.0489974843987517 -2.0758622750577591 3.4651328671322359 120 151 191 156.960007 57.6000023 2
-2.0509772547359071 -1.7540869321414232 3.4452327350447778 144 170 201 156.960007 93.6000061 2
0.35921239355226753 -0.23017946978156917 0.94815326530408717 205 218 231 528.480042 194.400009 2
0.37586982839659577 -0.2715620720908884 0.94947392534019115 255 211 219 535.679993 178.560013 2
0.36153567394711206 -0.014963206861833757 0.94850485044395905 48 117 144 528.480042 279.360016 2
0.27967566516514497 -0.51365085381066122 1.0432910325467704 209 255 166 486.720032 99.3600006 2
-0.34108567142373425 0.29483918753874688 0.46856469468316597 93 106 255 105.120003 529.920044 2
-0.27502773519386459 0.3626400818776726 1.1746728678017133 156 158 168 292.320007 404.640015 2
0.25033863198721407 0.37864644308626727 0.68594093901023601 0 0 7 524.160034 501.120026 2
0.4504478777148766 -0.044742919861937694 0.93747047137625494 78 112 255 565.920044 270.720001 2
0.35903584590853477 -0.27065812811985734 0.95594155159172534 212 220 229 528.768066 179.712021 3
-0.60993179164667866 0.2901610052028018 1.1180664423604194 167 255 135 174.528015 385.344025 3
0.27999821786601375 -0.66932021205883996 4.3239853476096846 226 233 255 409.536041 228.096024 3
-1.5804974827709319 0.087947998134900091 3.6543720061932312 108 128 255 217.728027 298.944031 3
0.36267437675063907 -0.23146570264542371 0.94936901866165635 205 218 231 528.768066 193.536011 3
-0.24161052408670924 0.42590013095882662 2.8139172562966981 255 212 211 347.328033 345.600037 3
-1.3053831500337987 -0.56526325982613823 3.4149402165754972 255 84 99 235.008026 222.912018 3
-1.6307352911920887 -1.7338109653563396 6.475514968265581 223 227 234 288.576019 186.624023 3
-1.1206694674534279 -0.54860246896946618 3.3423176382699653 223 255 221 254.016022 224.640015 3
-1.9131507025393293 -1.0636091043368698 3.4791682707608578 206 214 226 172.800018 167.616013 3
-2.0172872535896591 -0.34941158265879046 3.4009226753100505 238 241 255 157.248016 250.560028 3
-2.022255295731803 -2.0508761762579297 3.4243432471974904 150 190 255 157.248016 57.0240059 3
0.3525885676956716 -0.01825110280025409 0.91206338314061153 48 117 144 528.768066 279.936035 3
0.48200421552359579 -0.37805863999971268 0.94875822911319241 220 255 193 578.880066 138.240021 3
-0.32038685169593295 0.38326928163887203 0.75411436640703045 255 190 202 219.456024 483.840057 3
-0.18689190409041645 0.44984643445705924 0.79595622627756946 255 27 42 295.488037 506.304047 3
-0.47529738707689861 0.3005247735811673 0.61186886029787235 194 195 193 84.6720047 478.656036 3
-0.54047171087875689 0.2760596170327087 0.73576348704785888 97 103 255 101.952011 428.544037 3
-0.41106897941287057 0.31753927972850349 0.59732409120748264 126 255 85 122.688011 494.208038 3
-0.31808525289170997 0.40863132656335005 1.352355724964269 156 158 168 292.032013 404.352051 3
-2.0890691883442685 -1.7756062840651887 3.5108517067302349 170 201 255 157.248016 93.3120117 3
-1.4441406918959911 -2.1306715328020513 6.4547612279852213 222 255 185 298.944031 160.70401 3
-1.6865412794161312 -1.9906791080103283 5.8887429040452242 201 220 255 273.024017 157.248016 3
-0.19011101031245681 0.45487465886972961 1.2702830265634841 255 75 78 327.628845 429.23526 4
-2.0495027658223579 0.4497162262336567 4.7773782825484554 53 56 255 221.875229 325.555237 4
-0.32873198573371898 0.37875064399375075 1.0576232141719295 255 209 211 263.347229 425.088074 4
-0.022865076480001467 0.39088444708262055 2.7003269503342429 186 182 255 377.395264 344.217651 4
-0.25272306639108111 0.44556442363368765 2.8261699109809517 209 255 211 346.29126 346.29126 4
-1.2605051000376295 0.35879580567913361 1.86419785779055 129 255 168 122.342415 362.880066 4
0.30388568343515299 1.5481226395647993 8.8643360895077254 113 133 150 396.057648 352.512054 4
-1.2792340650721776 -1.8783751985683579 5.7574446901544416 222 255 185 298.59845 161.740829 4
-1.9156944008003762 -1.0884516572888405 3.4662580620537486 206 214 226 172.108826 167.961624 4
-2.0472911219959711 -1.1114600008807596 3.4608245654175143 214 226 255 157.593628 165.888031 4
-1.5707946338702108 -0.26733561422892999 2.6806022076647342 238 241 255 157.593628 250.90564 4
-1.7378973676727694 -1.8083592530610766 3.3424039265068699 196 255 126 182.476822 80.8704147 4
-2.0417479032331012 -1.8204525545125709 3.510020316517521 170 200 255 161.740829 87.0912094 4
-1.9847520601179762 -2.1023845643725965 3.4265211139757268 146 188 255 161.740829 51.8400078 4
0.40889192501398408 -0.86727881308698607 4.7168053859351877 237 255 224 418.867249 217.728027 4
0.37243021857338943 -0.27223637896945624 0.95751358552880861 230 255 211 534.988892 178.32962 4
0.46297092387220762 -0.47534038226625031 0.97664170755057622 203 255 138 566.092896 97.4592133 4
-0.39760862152463794 0.43857386289677136 1.0804763445902399 194 255 197 242.611237 447.897675 4
-0.33613757379529119 0.3000967966116212 0.62637498475334596 193 255 194 178.32962 472.780853 4
-0.35252381424240298 0.30109660448469305 0.47945955023462283 255 118 125 103.680016 530.841675 4
-0.36855076396333564 0.33804333303383971 0.54909284915270329 100 255 63 122.342415 522.547302 4
-1.274878529486509 0.25110744818693287 3.991520575923551 114 127 255 265.420837 313.113647 4
-0.20293475126690486 0.43823079056113151 1.3530819701128627 255 109 110 327.628845 410.572845 4
0.27917968657472114 0.053826524135085367 0.33674937048504605 110 137 255 705.024109 346.29126 4
0.082648997115021716 0.44855499472795918 1.6942311097232889 212 255 212 402.278442 389.836853 4
-1.6865412794161312 -1.9906791080103283 5.8887429040452242 201 220 255 273.71524 157.593628 4
-0.2408088852363679 0.46701241789054254 2.2374963151021485 203 184 255 345.876526 370.759735 5
-1.8270865444800641 0.062374616295067187 5.8376666099738799 107 255 88 266.250275 291.133484 5
0.35686257897116103 0.027761849512185053 0.67385459504143541 110 134 155 584.75531 301.086761 5
-1.5187531233274529 0.26792828166827454 2.8412084009608014 197 255 203 174.182419 320.993317 5
-0.35737488527424111 0.30400351042533458 3.2201825695121484 79 97 117 340.899902 323.481659 5
-1.9336412020985381 -1.0946976322537632 3.4888180671392912 255 205 214 171.694107 166.717468 5
-2.0012491397120811 -1.0867835231613969 3.3844248979522549 208 216 227 156.764175 166.717468 5
0.27785403732899605 0.10471069214699888 0.33439555153557565 81 98 130 704.194641 408.084534 5
0.45405273114620215 -0.48946712277994975 0.96456721622909725 139 168 203 564.848694 97.0444946 5
-1.6492339419818549 -1.9340710926687306 5.766732039281762 202 221 255 273.71524 159.252502 5
0.38896217377243447 -0.635622164894456 1.075954548712728 118 152 194 520.05896 64.6963272 5
-0.18270111971932845 0.44250711169647555 0.78057653776320834 27 37 52 296.110107 502.640717 5
-1.1785355076403063 -0.56642508811172665 3.4671200828383144 255 221 222 251.320358 223.948837 5
-1.3864928387360864 -0.18539600137411269 3.4649104790144398 255 53 71 231.413788 263.761963 5
-0.32765736403602252 0.29395542691114013 0.60895019203434431 194 194 194 176.670746 472.780853 5
-0.32762459907338748 0.42069749880814067 0.71580057717639045 115 125 255 209.018906 512.593994 5
-0.33893854352118225 0.30188396785791649 0.57024434712710803 105 134 149 156.764175 492.687439 5
0.36788731807919528 -0.23382231703009437 0.95450574178936787 231 255 205 530.012207 194.088989 5
-0.45688810088753073 0.37911698188119125 1.0428267797584625 104 121 255 213.995544 425.502777 5
0.075455757034533444 0.50885177770927359 1.339536148832617 255 217 216 403.10791 432.967743 5
-0.026365415194787523 0.44609961652309443 1.1605598868873619 213 255 219 378.224701 432.967743 5
-0.19366295973577552 0.45369200796945824 1.2797943961589762 92 94 111 328.458282 423.014465 5
-0.22102633228982516 0.4703047569923427 1.515081117265906 126 126 141 328.458282 408.084534 5
-0.24843507969601952 0.40641517675366629 2.767849497197814 209 208 255 345.876526 345.876526 5
-1.012748125995879 0.39938816630751228 1.6363877667265943 176 255 174 146.810898 383.201324 5
0.36282971893034022 -0.018163535243593272 0.9455413596959743 143 255 42 530.012207 278.691895 5
-0.74825328159337001 0.2299521059250717 2.3799753619435768 255 135 137 259.78067 325.472321 6
-0.28424744061807838 0.37290120390505438 1.7633643412116533 255 96 108 319.500336 367.276093 6
0.46033535701805783 -0.48320410017409199 0.97761673274960259 140 168 203 564.351074 98.5374908 6
-0.19476593225858796 0.45738510945692923 0.81808866392792123 255 18 32 295.612457 504.631378 6
-0.29241205447829821 0.40009639500401428 0.7109390007641756 168 174 166 220.96286 504.631378 6
0.3667536114380443 -0.23742251378928558 0.94590788137040027 255 205 218 531.505249 194.088989 6
-1.1943846063144368 -0.17034658181419141 2.9895699467278525 77 96 255 229.920807 265.752625 6
-1.9249113880008095 -1.092316228050898 3.4683822598069356 226 255 206 170.201126 167.215134 6
-2.0001030162762277 -0.34045064321794111 3.4072846342535805 238 241 255 161.243164 250.822708 6
-0.48122661733832461 0.37402788425621714 1.0675076554321554 83 96 114 212.004898 426.995789 6
-0.22166926970929013 0.51186005018339409 1.3069397208093798 54 255 28 322.486328 441.92572 6
-0.19425515340412547 0.46573845720968998 1.3131679892844503 94 95 112 328.458313 424.009796 6
-0.33760897791110223 0.30022205119617978 0.61828160255904019 189 190 190 176.173096 474.771545 6
-0.37919175683813688 0.30396334395970614 0.65512106792383329 200 255 200 158.257187 468.799591 6
-0.87891348449879469 -0.013363673558639946 6.3657420391434343 255 76 98 331.444275 286.65451 6
-0.36345229639356447 0.41260808076147198 1.1741174614287455 206 205 255 265.752625 424.009796 6
-0.40150581079644487 0.31446320903497427 0.58650422564710392 126 255 84 122.425369 495.673431 6
-0.35889649343985219 0.48594079168956106 3.3319431894610729 209 255 211 346.374207 346.374207 6
-0.27787970689604524 0.4961777321214389 2.4018211015614463 255 185 193 343.388214 370.262085 6
-1.8264656059807236 0.10975031190661461 4.1112694146789259 128 255 95 214.990891 298.59845 6
-0.16962922333236308 0.42873848674093329 0.76496494060539777 22 28 255 293.820892 505.228607 7
-0.3371828872452074 0.411669965313608 0.82304745722106198 163 170 255 229.323624 476.563141 7
0.45923783898986614 -0.47823678566493377 0.98005430069791899 204 255 143 562.559509 100.329086 7
1.1993286603497384 -0.81160369938695365 3.065643556750512 231 255 205 530.310852 193.491806 7
-0.40489219762482831 0.31464454647396939 0.59019255839479912 112 126 255 121.828178 494.479065 7
-0.51438501978710938 0.32223714168379791 0.66302566127852391 201 194 255 89.5795441 480.146332 7
-0.43123904981121086 0.28060849492286316 0.73916807495915204 139 138 255 157.659988 437.148163 7
0.09584473255706305 0.46420544266646918 0.82264030412201605 0 13 255 433.564972 505.228607 7
-0.20127870993608843 0.46419559702670299 1.3442134973098605 103 120 255 329.65271 422.81543 7
-1.9490910011099247 -0.33566457041615205 3.3676754581509938 238 241 255 161.243179 250.822708 7
-0.6398602540204088 0.028010990299453684 4.8866626866982097 98 118 255 333.235901 286.654541 7
0.085765057881714846 0.45196489269170192 1.2711919925889787 219 219 217 408.482697 422.81543 7
-0.32135695617771853 0.36951436709036245 1.0421393514246264 208 208 255 265.155426 422.81543 7
-1.799303994925491 -1.8926984033214551 7.0079762911152272 232 255 221 286.654541 182.742264 7
0.21053006161581878 -0.16961779006063554 1.1084062170190687 255 240 241 455.064056 232.906799 7
-0.2088839057223475 0.41278233724933444 1.9167188526492769 255 179 189 343.985443 369.067719 7
-0.28685871162325927 0.35719833710540327 1.4426438082075226 145 145 76 300.987244 379.817261 7
-1.7719145677963617 0.28297145491967157 3.1366083136381531 163 158 255 161.243179 322.486359 7
-2.5654711437165667 0.17077937218221723 4.0331651018979011 255 230 229 143.327271 300.987244 7
