ply
format ascii 1.0
comment Written with hapPLY (https://github.com/nmwsharp/happly)
element vertex 172
property double x
property double y
property double z
property uchar red
property uchar green
property uchar blue
property float ix
property float iy
property uchar octave
end_header
-0.37258281655423087 0.44402124351499972 0.97394032790990703 95 255 64 238 463 0
-0.98332848659109207 -1.5287946740185878 5.3333432493264956 255 210 222 315 178 0
-1.7152027748390135 -1.404063011991876 2.9792907654128995 198 208 222 164 106 0
-1.6783766801304179 -0.31796666639236704 2.9186841373215522 255 241 243 163 247 0
-1.6933346468418065 -1.096169145681013 2.9751643428021457 230 255 211 166 145 0
0.59386232517045345 -0.58348722749049331 4.2387196464584402 235 239 244 436 235 0
-1.3781772525172267 0.34295933838592929 2.7141392912766249 195 255 170 190 337 0
-0.87283194884476689 -1.0486719779973561 5.2308430146175384 231 236 241 320.400024 211.200012 1
-1.6708320279339213 -0.020656855691261161 2.9194395907933028 245 247 255 165.600006 285.600006 1
-1.506462387322439 -0.22389382807385177 2.8626731152803857 244 246 255 181.200012 258 1
1.4063669518814035 -0.78756950893475408 2.4223338138340953 255 217 224 607.200012 160.800003 1
-1.4403417553507025 -0.83111343348513333 2.8287315566913773 228 236 255 189.600006 177.600006 1
-1.719149266034254 -0.85954169927618063 2.9801024299244476 255 224 229 163.200012 175.200012 1
-1.6879902533475697 -0.93880225855143939 2.9251061733875066 255 215 223 163.200012 165.600006 1
0.63525688936803615 0.46520525127473322 1.7595058595349871 189 194 198 524.400024 391.200012 1
-1.2814780773437726 -1.9608563532713994 5.5916429045548668 212 229 255 297.600006 153.600006 1
-1.4209106226903216 -1.1884709082950116 2.7934045244761423 203 222 255 189.600006 123.600006 1
0.68124343791552411 0.31456118448780157 0.83760014256314874 87 255 105 698.400024 433.200012 1
-1.4501432165353019 -1.2837575483726704 2.8357621170805825 186 202 221 188.400009 115.200005 1
-1.6475484747743203 -1.361284129355633 2.8805785484648014 196 207 221 164.400009 105.600006 1
-1.7317619669313302 -1.560138190964937 3.004893092662261 255 165 188 163.200012 87.6000061 1
0.05312512421751614 0.40902754584957773 2.7849796583520194 199 212 211 392.400024 343.200012 1
-1.589124298870598 -0.19320637622765413 3.8284965729635898 129 149 255 225.600006 271.200012 1
-0.74927553156681403 -0.3959260522966781 2.881577697793607 255 227 228 283.200012 236.400009 1
-0.28785856683341815 -0.071620269579316748 6.2111647302202737 96 118 138 364.800018 283.200012 1
-0.54635003921272807 -0.090305527628884219 4.0770198927128041 255 68 81 331.200012 279.600006 1
-0.83058841889214197 -1.7416886379328744 4.8612036443033091 228 255 190 318 151.200012 1
-0.46334435259829965 0.44599009511219179 0.99222867176325824 57 87 88 204.000015 459.600006 1
-1.2142905654499274 -1.9100935795510663 5.1172246650410784 227 255 211 290.400024 145.200012 1
-1.6717121552464227 -1.5219707573507917 2.9045841212798806 214 255 164 162.720001 86.4000015 2
-1.627724196163495 -1.6921819504141051 2.8440248774626271 139 171 206 164.160004 59.0400009 2
-0.5090084779380597 0.47570312657496056 1.0848550767545957 255 64 89 203.040009 457.920013 2
-0.37358601160729754 0.44724152439095044 1.2053852723981464 73 105 108 264.960022 427.680023 2
0.30732365545713392 0.47755148106297435 0.98164713922671698 222 222 222 504.000031 475.200012 2
0.047898930751193447 -0.60744392205470088 5.0925562754888549 146 151 255 385.920013 243.360016 2
0.28394231964631444 -0.73974870648484925 4.9805096566601161 142 158 177 404.640015 231.840012 2
-0.5176117267388376 0.36820896418615012 1.0247136188886572 70 255 136 190.080002 429.120026 2
-0.78060180065635043 0.36207578999818435 2.9774120527613541 145 148 143 280.800018 336.960022 2
-1.4520152494287517 -0.59712410481036771 2.8404675229505956 255 232 236 187.200012 207.360016 2
-1.6888614932994841 -0.62428745016027865 2.9464152765552036 234 236 241 164.160004 207.360016 2
-1.7628599639731699 -0.73982883824093149 3.0960042524384814 236 240 255 165.600006 195.840012 2
-1.5087323536833632 -0.31473987609174081 2.9183507927669545 255 239 242 187.200012 246.240005 2
-1.6205599718042158 -0.31138045696658978 2.8429274261814865 243 245 255 165.600006 246.240005 2
-1.4195179017771213 -0.36368674494721043 2.7975961112888545 255 242 243 187.200012 237.600006 2
-1.6176451095639441 -0.3760676176153972 2.8603238196351515 243 245 255 165.600006 237.600006 2
-1.4804622650569401 -1.0665259536572114 2.8907296296480327 255 206 217 187.200012 148.320007 2
-1.6411058991138185 -1.0601980235138999 2.8658112500892239 230 255 212 162.720001 145.440002 2
-1.4389811758749795 -1.1364774223404368 2.8262443583055612 198 210 226 188.640015 133.919998 2
-1.5407227582832084 -1.2122909742214716 2.8407230137046549 255 203 212 175.680008 123.840004 2
-0.5347114493121321 0.34600794640612709 1.1004404151361729 84 255 38 198.720001 408.960022 2
-1.4289598619233326 0.13382288390768501 3.6794954488177654 132 255 95 234.720016 300.960022 2
-1.4809104304919956 -1.3699533029246342 2.899626811945903 199 219 255 185.76001 106.560005 2
-1.6497635313265309 -1.302035935288858 2.8842742675721897 207 215 226 164.160004 115.200005 2
-0.87078578791135453 -0.33820280471724318 3.2284391765742564 229 255 228 282.240021 247.680008 2
-1.4138903783582899 -0.89596499948531494 2.7917123168327107 213 222 233 188.640015 165.600006 2
-1.506462387322439 -0.22389382807385177 2.8626731152803857 244 246 255 181.440002 257.76001 2
-1.096549573119455 -2.2064376494306526 6.1929585722192311 190 210 228 316.800018 151.200012 2
-1.5301130325720731 -1.8909682508619026 2.771531141101903 255 126 159 171.360001 27.3600006 2
-0.27309792885553286 0.46430650777407684 1.3491816539358985 255 109 141 303.840027 420.480011 2
0.28394231964631444 -0.73974870648484925 4.9805096566601161 142 158 177 404.352051 231.552017 3
-1.4388716910897053 -0.67207182311217317 2.8128965345541026 239 255 230 186.624023 195.264023 3
-1.5996855245345185 -1.3579670289632519 3.0486383916409672 188 203 221 184.896011 114.048012 3
-1.6963461874514274 -1.4732858783855995 2.9478496820443518 169 191 216 164.160019 95.0400085 3
-1.5491463780440675 0.26134743949051115 3.601046820413087 255 96 111 219.456024 316.22403 3
-1.4135343222383447 0.13517342022430892 3.6047661575845211 112 131 255 233.280029 300.672028 3
-1.3230539502615102 0.51595465207187674 2.032899404375998 87 255 93 134.784012 387.072021 3
-1.4228283900067549 0.30602090906566948 2.5063038717242314 255 224 210 167.616013 333.504028 3
-1.023505131037977 -1.5121394414463765 5.0846904448523897 209 221 234 304.128021 176.256012 3
-1.024142383066418 -0.15550869896675806 2.9976818633161968 112 255 69 250.560028 266.11203 3
-0.75762318396663986 -0.39358658576738859 2.8958118689286492 255 227 229 283.392029 235.008026 3
-1.6716439905348683 -0.4773074424781153 3.8751747374173569 255 109 126 219.456024 241.920029 3
-1.0123550564958785 -2.0620123600019431 5.7802322981186833 191 211 228 316.22403 152.064011 3
-1.479908000856073 -1.5117333153016117 2.8719230323624645 152 182 212 188.35202 86.4000092 3
-1.6209053323909233 -1.7535077008989932 2.9006002590418247 255 134 167 171.072021 55.2960052 3
1.1055856433497395 -0.70404839920729623 2.5171816150853319 215 225 235 552.960083 181.440018 3
-0.45405024394021987 0.33880057828149418 0.90194403540800572 63 255 143 190.080017 428.544037 3
-0.76965941510286084 0.14344024593711593 3.0195034066505149 134 143 255 285.120026 307.584015 3
0.63286685589229574 0.2823529040200829 0.88975522629407622 101 255 100 658.368042 407.808044 3
0.90867301809543022 0.37987765247829186 2.4484137740541034 59 68 255 525.312073 347.328033 3
-0.65354311771060303 0.27620628815686366 2.7877287769036809 222 255 213 294.451233 323.481659 4
0.53790909227213912 -0.47633116511067908 4.4449307617657823 255 172 208 431.308868 248.832031 4
0.54666723272142703 0.34523996815711372 3.0363087267549003 112 140 146 452.044861 331.776062 4
-1.3468701041253461 0.33685637968852866 2.6639811179711099 169 179 193 188.697632 337.996857 4
-1.5829304013048091 0.36158675749199715 2.8239884378927069 159 168 183 172.108826 337.996857 4
-1.9633690626216413 0.40654099591452986 3.4279277668827461 255 224 210 167.961624 333.84964 4
-1.0922911426551405 -1.5805412783323431 5.4489324979427343 234 255 209 302.745636 176.256027 4
-0.97801850103929988 -0.14557701830438763 2.8910305253993043 75 94 114 252.979233 265.420837 4
-1.4169177728740454 -0.68491921117414767 2.9250445389106927 255 229 233 199.065628 199.065628 4
-1.5094037278721695 -0.85107126891697882 2.9207402414258841 235 255 222 186.624023 176.256027 4
-0.9357009255527271 -1.9154326341884509 5.4042071882902114 210 228 255 317.260834 151.372818 4
-1.6099405862130705 -1.7610854381830061 2.894556964396624 204 255 132 170.035217 53.9136086 4
1.330993188210738 -0.83390657582442318 2.3605804611868075 255 225 228 599.270508 151.372818 4
-0.41999732501321696 0.47031165612349873 1.1923402911885201 129 255 97 250.90564 441.676849 4
-1.3642132528176405 0.2068607158590702 2.7978093122959602 137 255 192 194.918427 317.260834 4
0.09115277590505988 0.4246594800945791 1.2401304826738819 187 187 190 412.646454 420.940857 4
0.4856413628574483 0.47345852953780765 1.2372880229028773 179 255 152 534.988892 437.529663 4
0.19531740072897996 0.44905481603993541 0.74043189290805889 207 205 255 481.075256 522.547302 4
-1.3269734555575705 -1.9971443126271224 5.4419363467731019 226 255 215 290.304047 147.225616 4
-1.4386660175155184 0.34632883645094586 2.8433339857139091 202 255 197 186.624023 335.923248 5
-1.3057082947984666 0.50511179599485456 2.0130178166063026 111 255 83 134.369293 385.689667 5
-1.2646320792200703 0.44294729035800606 3.7387880858483449 51 28 255 253.80867 333.434937 5
-0.51287991545933931 0.3921233807796759 2.604233809312519 205 255 173 306.063416 343.388214 5
-0.045221028101219307 0.11276295946215993 2.8373854221662622 255 115 133 375.736359 298.59845 5
-1.4947721946737302 -1.0419038944088137 2.8710665706033089 229 255 207 186.624023 149.299225 5
-1.6597670606292567 -1.0790196838169483 2.9131357524484214 230 255 211 166.717468 146.810898 5
-0.93438564513076505 -1.0561124735418383 5.3161595715367511 236 241 255 313.528351 209.018906 5
-0.83417580474451514 -0.47467621695746243 2.8825488388505223 229 229 255 273.71524 223.948837 5
-0.9381694168614656 -0.70449374874839299 2.9185053254029154 172 255 109 258.785309 194.088989 5
-0.76280929870958047 -0.39428833059743384 2.9132425002735314 255 227 228 283.668518 236.390427 5
1.5696487948594093 -0.79877284205371102 2.4067769823843448 204 218 231 632.033386 161.740829 5
1.2783918889644639 -0.85318235986006075 2.5776078830427109 233 237 255 577.290344 161.740829 5
-0.53085145151662649 0.38503325025183344 1.8956570222703815 79 103 120 276.203552 363.294769 5
0.48049974176435806 0.47546127301015934 1.0978202152657355 149 168 255 549.918823 450.385986 5
-0.3725853700432884 0.44236178344074656 0.9718194021363904 64 96 94 236.390427 460.339264 5
-0.37932549435185514 0.45364211161718909 1.2383452047483856 54 89 93 268.738586 425.502777 5
0.65419451644598681 0.33388084923130118 0.78352889444835827 255 121 121 699.218018 450.385986 5
0.62741868512456844 0.31309395836531434 0.88376572610736881 255 94 99 659.404907 425.502777 5
0.5766724245640521 -0.56899366281486818 4.223843456777935 240 244 255 437.944397 233.902115 5
0.28022078430889708 -0.64624689009952119 4.4029620154304476 156 177 255 405.596222 231.413788 5
-0.52885198881234419 0.47258764543890752 1.1074144848552105 54 83 83 204.042267 455.36261 5
-0.40194463868955732 0.4738510134946789 2.74546402959656 223 224 255 325.969971 353.341492 5
17.109818674878319 -18.496003521636123 32.225737098161176 130 167 208 592.220215 64.6963272 5
-1.6422030658732889 -1.7054396289718494 2.8772651386354018 139 171 206 164.229141 59.7196884 5
-1.3365980089647853 -0.17587661093405163 2.7997080096990676 244 245 247 200.060959 262.766632 6
-1.6080508237551911 -0.30392760719443196 2.8553112807363621 255 241 243 167.215134 247.836716 6
1.1581097894417933 -0.73761511845216432 2.7268826574032841 226 236 255 549.421143 182.145065 6
-0.9357009255527271 -1.9154326341884509 5.4042071882902114 195 213 229 316.514374 155.271194 6
-0.75419824057280982 -0.52485007780683834 2.8317299201096437 230 231 231 280.682556 217.976868 6
-0.94170791939686893 -0.70370148540089816 2.9249114587992007 102 118 143 256.794678 194.088989 6
-0.30049918931172148 -0.062131190669312775 6.3452692277498732 117 137 255 361.304138 283.668549 6
0.041741575553233767 -0.49720580327321662 4.5155027065031952 86 255 38 382.206024 244.850739 6
1.5158804892131772 -0.14991504591442389 4.8623071438256726 247 249 255 501.645416 274.710571 6
0.62182772476884884 0.46632289648974035 1.7726132464378637 137 154 159 516.575317 391.163971 6
0.48233130038887806 0.48481206988720132 1.1228651180247766 149 168 255 549.421143 450.883667 6
0.48214256962462521 0.4805914027052634 1.308938244852039 183 255 174 522.547302 426.995789 6
0.075002683912236856 0.40564784140316862 0.94402109047760363 224 224 223 412.065857 453.869659 6
0.35196490511770173 0.75932226932396674 2.3192381028675557 142 151 169 444.911713 415.051849 6
-1.0093734353977091 -0.15509039290562446 2.9454725850992962 110 255 66 250.822708 265.752625 6
-0.75103075953031917 -0.38276204369665923 2.8676319063327038 227 228 228 280.682556 238.878769 6
-0.27362486250721507 0.44722170536573036 1.3197072274360315 141 151 255 301.584442 421.023834 6
0.59633701590693078 0.29989381999994646 0.82620084289349061 94 96 92 656.916626 426.995789 6
0.14995373147434155 0.50747763831199677 1.7022366637201953 197 117 255 421.023834 403.10791 6
0.13976979281851598 0.48639787322021355 2.3391260899487665 217 217 214 412.065857 370.262085 6
-0.39783960727218859 0.45332122360495314 1.0116117601777337 61 91 89 232.906799 459.841614 6
-0.36588757485915302 0.42910013686065501 1.183486409941819 60 93 98 268.738617 424.009796 6
-0.49937836785468859 0.30236963065905942 2.228813975332586 198 255 173 298.59845 340.402252 6
-1.3283039218592769 0.12603987064225164 3.3907405396662202 101 118 137 232.906799 301.584442 6
-0.07845126980754924 0.12507115288875564 5.1174828655089515 155 255 118 382.206024 301.584442 6
-1.7878766370239982 0.34872131240812698 3.0849570755726381 160 173 255 161.243164 328.458313 6
0.74356849675856618 -0.740399316825471 4.4703259070724553 239 243 255 453.869659 220.96286 6
-1.6972233998444133 -1.7409423765851579 2.9590610479113408 139 171 206 164.229156 59.7196922 6
-1.3199967939181771 -1.9639206568635474 5.4088023428993646 219 227 255 289.640503 146.313248 6
-0.47325778719815359 0.016856233184386282 5.8434125294916583 255 98 118 351.151794 283.07135 7
-0.89806142365948993 -0.58610644788339572 3.2473710071229851 255 230 231 279.488159 218.574081 7
-0.86332619796301957 -0.43249001994800451 2.6347819545557001 218 221 255 261.572266 218.574081 7
-1.0128659106686655 -0.98166256162469256 3.8328173034332353 255 227 227 275.904999 186.325439 7
1.5997451125554107 -0.77548104559603981 2.5016365984197715 255 203 217 627.056763 164.826355 7
1.2712211145578522 -0.84102732350450693 2.5568592037138136 232 237 255 573.309082 161.243179 7
-0.72055793302204174 0.34685723601431495 0.91602406635489886 108 255 83 78.8299942 433.564972 7
-0.89512440670575399 -0.14861462694771271 2.6377064139681257 255 69 88 247.239532 265.155426 7
1.3985412792957548 -0.14155170563588709 4.4894416880988555 247 248 255 501.645416 272.321808 7
0.14302710415075448 0.45092617788769829 2.2751388444906797 225 224 222 408.482697 369.067719 7
-0.45513627891264918 0.49889523167154609 1.1453810555714723 60 90 88 232.906799 458.647247 7
-0.31850874754754988 0.47742809839992456 1.437695218042228 113 145 155 300.987244 419.232239 7
-2.1120193449255393 0.32915585437006961 3.6330736700421156 169 175 255 161.243179 326.069519 7
-0.17039477672535042 0.029829924947266176 4.1709361300306291 118 138 255 361.901337 290.237701 7
0.57466685894951786 -0.57073778786906659 3.4212147599111331 235 239 243 444.314514 229.323624 7
-1.5267410462860762 -1.056073376677535 2.9054437019734607 229 255 206 182.742264 146.910446 7
-0.9357009255527271 -1.9154326341884509 5.4042071882902114 255 197 214 315.319977 157.659988 7
-1.3199967939181771 -1.9639206568635474 5.4088023428993646 226 255 217 290.237701 150.493622 7
-1.6216555979178624 -0.30585390578249322 2.9087641125064718 241 243 245 168.409531 247.239532 7
-1.2086378457882381 -1.6972474323342099 5.8452458820602873 208 221 233 304.570435 175.575897 7
