ply
format ascii 1.0
comment Written with hapPLY (https://github.com/nmwsharp/happly)
element vertex 198
property double x
property double y
property double z
property uchar red
property uchar green
property uchar blue
property float ix
property float iy
property uchar octave
end_header
-0.50616147699554381 0.51359098227397082 2.8024274816839467 222 225 226 316 358 0
0.4089836523983994 -0.71932688926373389 4.6700703525791623 255 134 157 419 229 0
-1.288233150775369 -0.49176691743672141 2.4993413144254975 255 231 235 187 214 0
1.5573077170037148 -0.71383885479724829 1.8893057292832212 225 233 255 701 142 0
1.244301073153143 0.49490082528222912 2.2222583502006388 112 110 255 601 373 0
-1.574886962886632 -1.7519323984139452 2.6512942230966252 160 200 255 157 34 0
-1.315637081110844 -0.97910564231160602 2.5138226579732752 255 202 214 183.600006 139.200012 1
-1.5404418684748515 -1.0687819351273238 2.630487426074704 217 228 255 157.200012 132 1
0.36532250097680707 0.50832496806237104 1.1266238445313363 255 118 131 507.600006 460.800018 1
-0.85959459108979575 0.47526269015279093 1.1467294859256647 66 83 255 97.2000046 445.200012 1
0.65170717264604927 0.51679585965786634 1.1864210765047698 64 255 38 594 457.200012 1
1.489955328361753 -0.73812022214709772 1.9961423668507736 224 233 255 669.600037 146.400009 1
1.5114534821347445 -0.84801411582167707 2.1279690899636021 209 226 255 657.600037 133.200012 1
-1.5351421973343138 -1.501191371564828 2.588764599812635 179 209 255 157.200012 63.6000023 1
-0.78214910267836313 -1.0626500165145041 5.1194187812818264 232 236 241 324 207.600006 1
-1.4390883487387924 -0.16892473341880562 3.4827845751838717 108 133 255 225.600006 267.600006 1
-1.3098699334774402 -1.1984769099380443 2.544184567160575 220 255 186 186 109.200005 1
-1.3097911025610154 -1.2601186841090444 2.5101112980628124 255 176 195 183.600006 97.2000046 1
-1.3350599327016646 -0.29038675813830317 2.5424480318820302 242 245 255 181.200012 243.600006 1
-0.59865104724443174 0.49450217251791428 0.82633989392164553 198 193 255 105.600006 519.600037 1
-0.79630591628711844 -0.59409976933033104 2.5594339536608048 230 230 255 265.200012 199.200012 1
-0.883255772829735 -1.5353638580208981 5.1321005658725687 255 207 220 319.200012 174 1
-1.5719444884001708 -0.3017821397765002 2.6543712189549935 245 255 240 154.800003 243.600006 1
-0.69036586821517831 -1.7167401308043886 4.5162401722919103 186 206 226 324 142.800003 1
-1.4560392444607499 -1.3657322298558885 2.4480617411790524 211 255 161 154.800003 75.6000061 1
-1.4946035411544738 -1.0346923020707899 2.531651902385438 228 255 210 154.800003 130.800003 1
1.7434978499469456 -0.19323539744110618 2.0069706421569173 245 245 247 720 252.000015 1
0.21382393692393697 -0.71949052201710351 5.025435336119342 255 161 173 399.600006 231.600006 1
-0.35255501670872702 0.37301557585262546 0.65629099746941821 144 155 255 177.600006 506.400024 1
-1.567254376806662 -0.83484439789565745 2.6355627486454893 233 255 219 154.080002 165.600006 2
-1.3055480685309551 -0.72275421611378365 2.5092698363732642 229 236 255 185.76001 178.560013 2
-1.312970787693045 -0.81254265558615235 2.5254089759399303 213 222 233 184.320007 165.600006 2
-1.5394231490470225 -0.44528746713412015 2.6008011269036304 239 241 243 156.960007 223.200012 2
0.13600724549191856 -0.4649752185045477 3.5619786218964968 135 145 155 396.000031 237.600006 2
0.36742776342196692 0.5074519913297455 1.1295788815089169 156 255 124 506.880005 460.800018 2
1.1606249557808312 0.097383244126139426 2.3128343357579837 159 255 104 578.880005 305.279999 2
0.70166479592919051 0.60916621655365411 2.2895138573319818 151 174 255 501.120026 393.120026 2
-1.2880728758545255 -1.1082453234906089 2.4842816062097071 190 205 222 184.320007 118.080002 2
-1.3763943285142917 -1.1756412943404835 2.4805536409284161 209 223 255 169.920013 108.000008 2
-1.3601824455954059 -0.20426299322410357 2.5277454531814785 244 246 255 177.12001 257.76001 2
-1.311889944186464 -0.72817116983426211 2.9266435871519914 255 86 106 211.680008 191.520004 2
-0.72608463863412753 -0.094962248713262587 6.0177052614847852 78 79 99 336.960022 283.680023 2
-1.274353694945749 -0.56642194520961953 2.4572675839453297 255 230 234 187.200012 200.160004 2
-1.514643232265414 -0.5882918299404859 2.5608718765601206 234 236 240 156.960007 198.720001 2
-1.4695295158763892 -0.0033867692805578109 2.5045825780817017 245 245 247 156.960007 286.559998 2
-0.87762430602317965 -2.0815205418590303 5.5523298490135087 186 206 226 324 142.560013 2
-1.4530003082676473 -1.3093321523767072 2.4799234046442948 255 163 186 159.840012 84.9600067 2
-1.466905282916426 -1.7088491030954582 2.5616930670081652 200 255 127 162.720001 30.2400017 2
-1.4866503175131678 -1.6702887097857864 2.5276219535229663 128 160 200 156.960007 33.1200027 2
-1.3249967561828706 -1.0360275890239024 2.5421663437400968 211 226 255 185.76001 131.040009 2
-1.5794889411304269 -0.92646244393542565 2.6468136189314047 231 255 211 154.080002 152.639999 2
-1.0696168573565719 0.45157298809107493 1.3087827626792738 196 178 255 69.1200027 420.480011 2
-0.3213642086495847 0.44940692584545966 0.66458922073367543 28 255 13 198.720001 544.320007 2
-1.0393439572030712 0.41156626854441791 1.2094472968575878 204 255 202 54.7200012 417.600006 2
-0.89565627664745229 0.34386256960572903 1.8942436339399653 233 232 255 201.600006 355.680023 2
0.17485569565716119 0.41668823261472843 1.953950037520602 234 232 255 417.600006 370.080017 2
1.5014998833002251 -0.83355147914137673 2.1085717493723819 194 209 226 656.640076 133.056015 3
1.5036438389358022 -0.3048804300211006 2.0523792514743531 189 202 255 665.28009 231.552017 3
0.24673502755408783 0.40955875572372402 1.0028573668564911 224 224 223 480.384033 445.824036 3
-0.64932276411537293 0.16412214438772599 2.7393586709325035 187 206 255 293.76004 314.496033 3
0.34836643415983581 0.4779493517109048 1.0361308976885746 255 121 137 511.488037 463.104034 3
-1.3201559272408674 0.15261380013998002 3.4217389358495547 86 106 124 236.736023 304.128021 3
-1.3037086399252167 0.35593546955278915 2.2742533988268834 182 255 153 162.432022 349.05603 3
-1.3468695839601263 0.26937502263566715 2.7111215915393139 188 194 255 193.536011 326.592041 3
-1.2728632027004032 0.32358078830939763 2.1709315551860482 207 255 212 158.976013 345.600037 3
-1.3933188209184246 0.43574492080931448 3.0244915136357449 255 65 69 207.360016 342.144043 3
-1.38450110468915 -0.036071904514619224 2.5789033442055356 245 246 247 176.256012 283.392029 3
0.89746259304397558 0.33902379616433542 2.923186058218243 91 100 255 501.120056 333.504028 3
0.81549398695064967 0.44301539431102721 3.5752538145235588 192 196 255 473.472046 336.960022 3
0.97257965871103425 0.40721913150435607 2.4169428761759932 94 88 100 540.864075 352.512024 3
-0.81996666734031098 -0.60962841779002053 2.616377685180693 231 255 230 266.11203 198.720016 3
-0.70371134551214842 -0.30994098077624188 2.8176619612769942 209 255 221 290.304016 245.376022 3
-1.5016763441223868 -0.29366828035118547 2.5467638466481852 245 255 240 158.976013 243.648026 3
-1.2121065372176845 -1.9975528738748078 5.1898661871412264 205 224 255 293.76004 138.240021 3
-0.86552942624482032 -2.0314468738993603 5.4260351471649937 255 186 207 323.136017 143.424011 3
-1.3307534043308054 -0.98152268086852779 2.5304874496438385 255 202 214 183.168015 139.968018 3
-1.3000924439436958 -0.89675145419296842 2.2023708921934331 228 255 209 158.976013 131.328018 3
1.4628791763535804 -0.88420904293135894 2.2817433977158648 227 255 199 630.720032 141.696014 3
-0.25274532033673802 0.47361989647605574 0.80578704450348582 29 255 13 262.656036 511.488037 3
-0.56145652306008786 0.53314065585754145 2.146795926804562 93 111 255 285.120026 381.888031 3
0.15701939855005853 0.35569359550575241 0.92412831758199632 255 201 204 451.008057 437.184052 3
-1.4841666130218938 -1.6662136203506459 2.5164317210384368 160 200 255 157.248016 34.5600052 3
-1.4030355671875006 0.2766388761929241 3.2665309403426201 255 102 118 219.801636 323.481659 4
0.21241031517619668 -0.72386643179061716 4.944322251965759 160 172 175 400.204865 232.243225 4
-1.2631645231430237 -1.2244310465014636 2.5720838644207697 216 255 170 194.918427 103.680016 4
-1.2871374771141322 0.15228299429582429 3.3102497125902479 134 255 102 230.169632 306.892853 4
-0.79231276338554846 -0.67968416627143213 2.576252236585618 214 215 255 265.420837 184.55043 4
-0.80684577126885237 -1.4329602592601614 4.7060666527220896 219 233 255 317.260834 172.108826 4
-0.84049655750266883 -0.12742400189721148 2.5700313023625236 255 122 129 255.052841 265.420837 4
-0.63900756430381822 -0.37779669341484856 2.6261399585995413 230 255 222 290.304047 232.243225 4
-1.5235273948359729 -0.456305978113413 3.533533516000583 255 97 117 219.801636 240.537628 4
-1.5228602791904082 -0.44582201480010863 2.5823893557605646 239 242 255 157.593628 221.875229 4
-1.3490884325096264 -0.82126289521180085 2.5650727993773983 213 222 233 184.55043 165.888031 4
-1.1618427436511731 -0.2236871562318738 1.9686002688447939 242 245 255 157.593628 244.68483 4
-1.2121065372176845 -1.9975528738748078 5.1898661871412264 224 255 184 294.451233 138.931213 4
-1.5346031371036828 -1.4374757928169071 2.5917051160799365 184 211 255 157.593628 74.6496124 4
-1.3550897692299264 -0.93985614261041017 2.3031959164082103 218 228 255 157.593628 130.636826 4
1.2169968086906739 -0.68496980101507321 2.2313648897550729 219 233 255 593.049683 172.108826 4
0.81578035806361526 -0.66199535966022605 3.4238526800585563 242 255 235 474.854462 209.433624 4
1.4055351967383773 -0.82308477144721071 2.2132391261651292 227 255 199 630.374512 141.004822 4
1.5002299330958526 -0.67915560315306323 1.8055616775421792 214 222 232 700.876892 143.078415 4
1.4973148039244313 -0.76026950435775953 2.015528376250765 224 233 255 669.772888 145.152023 4
-0.14654418809162473 0.5092642167642758 1.0530377507865332 216 216 255 329.702454 472.780853 4
-0.22205688216586017 0.42622163159963827 0.83304036671366033 160 255 116 282.009644 485.222473 4
-0.085461440686140477 0.47807104874230411 0.93912859228715639 134 154 152 348.364838 483.148865 4
-0.3643566906801643 0.34705930409469299 0.71753948700151327 207 208 207 192.844833 474.854462 4
-0.36797815316450455 0.3824177679779448 0.68297680824479445 157 255 113 178.32962 503.884857 4
-0.43566104888937263 0.39068990014642246 2.323946993349808 255 173 184 311.040039 352.512054 4
-0.8996816746799805 0.32648166618279262 1.904001742124636 255 231 233 203.21283 354.585663 4
0.772785515451481 0.47671175552015499 1.3768552011619382 255 148 169 599.270508 420.940857 4
0.15442761983830011 0.34009489195794962 0.87725569115765278 194 198 154 452.044861 437.529663 4
1.1393472236933408 0.44478500652906228 2.0309179449733823 255 106 110 599.270508 373.248047 4
0.027899639575291069 0.17003647130089683 3.953139146381095 255 116 135 383.616058 304.819244 4
0.93902619986560687 0.18901244981847043 3.0536118894360493 143 156 255 501.811279 313.113647 4
-0.54241951991572712 0.28536758580916655 2.5345664665134215 255 229 231 303.575073 333.434937 5
0.70054609356904107 -0.54908683391572288 3.7919731212187582 240 242 245 452.874298 231.413788 5
-1.3188276260719913 0.15734377489055795 3.385944834265576 82 102 120 236.390427 303.575073 5
-0.89499779875432051 -0.13853169433479873 2.6953240042007045 155 160 168 256.296997 266.250275 5
-1.55841093468569 0.21080599577121822 2.5228025548992807 175 111 113 144.322586 323.481659 5
-1.2255877524765837 0.35757706915954462 2.3714086217761983 207 255 218 186.624023 345.876526 5
-1.2494305202840836 0.22962792425359041 2.5161395625052316 139 255 182 194.088989 320.993317 5
-0.089579966924234755 0.48332977295562024 0.95689108603962847 142 159 157 348.364838 480.245819 5
-0.22582290975881558 -0.070930538255696951 6.8632884711043793 138 255 96 370.759735 283.668518 5
-0.81235904624233557 -1.9130352118283265 5.1394803974719609 255 187 207 323.481659 144.322586 5
-1.5108232530897583 -1.052051268767676 2.5758375092623651 255 212 219 159.252502 129.392654 5
0.61617093212541507 0.49628630801665313 1.0235413159772504 91 114 255 617.103455 475.269196 5
-0.62256502754033693 -0.50254281565347514 2.5262466262395722 255 224 228 291.133484 211.507233 5
-0.8713153036660386 -0.96093111296942357 3.3720943552096534 255 227 228 283.668518 179.159058 5
-0.90060062476334979 -1.5214311000394238 4.9631383923209285 233 255 204 318.505005 171.694107 5
-0.87222421179818577 0.37591062558328925 2.2090155375829452 255 157 158 231.413788 353.341492 5
-0.25515856131820702 0.47665893106820784 0.81510976427419468 255 15 30 263.761963 510.105682 5
1.5207578254853629 -0.64547403369598078 4.6655980419140661 245 255 239 510.105682 238.878754 5
0.40698469072482313 -0.63270147831477874 4.1241346914833565 178 255 136 418.037811 228.925476 5
-0.61834112074438075 -0.37091704004259229 2.5709182709932334 255 225 228 291.133484 233.902115 5
-0.13595701684933159 0.47180404395657782 1.0050782134557834 213 214 213 328.458282 470.292542 5
-1.0787067274179543 -1.7694332654992064 4.5606358597884311 206 225 255 293.621796 139.345947 5
-1.4743672601248461 -0.28432672560659844 2.5386485446385358 255 240 242 159.252502 243.855392 5
-1.2116754383176325 0.16541492755368326 1.5272704319341655 145 255 155 74.6496124 331.444275 6
-0.34166160358531283 0.03574006699140736 5.5661472461102717 119 139 255 361.304138 283.668549 6
-1.2508202963530763 -0.16267947817041348 2.5544838469500526 243 255 244 194.088989 262.766632 6
-1.3510568251114718 -1.0170628101305303 2.5398039719011458 255 205 214 179.159073 131.383316 6
-1.5247685003348033 -1.057669390076861 2.6172172024618998 228 255 209 158.257187 131.383316 6
-0.83762100853591814 -1.4397669275670633 4.729565719829286 204 218 232 316.514374 170.201126 6
-0.15959223599258365 0.49620078783073257 0.86665734604558153 95 92 255 313.528381 507.617371 6
-0.13287665500700818 0.46172421223953108 0.97494238245746612 214 215 215 328.458313 471.785553 6
-0.25240376207266024 0.4683456199005358 0.80356465543592437 43 39 255 265.752625 510.603363 6
-0.27828112948062778 0.5048182619103796 1.0517827956234185 215 217 216 280.682556 471.785553 6
-0.61677156191680549 -0.50514010535429288 2.5041372482309683 226 226 255 289.640503 212.004898 6
-1.0587413704846824 -1.1209473624098352 4.0647374579913347 227 228 228 280.682556 179.159073 6
0.60500327614404126 0.47825439263330394 0.87256404465665405 255 173 177 647.958679 498.659424 6
1.7065039528034338 -0.14450173518753223 4.7781707190056117 255 206 210 519.56134 274.710571 6
-1.2167517302765791 0.47005835235614679 1.4426221751682959 210 219 211 56.7337074 415.051849 6
0.10812587610878954 -0.64996406134209916 5.5402936153050124 255 27 29 391.163971 244.850739 6
1.5671257420677704 -0.8683463678810226 2.2089150380497999 195 209 226 656.916626 134.369308 6
0.63204250633789105 0.51021253420238533 1.1606623236962657 64 255 37 594.210938 456.855652 6
0.76623041226507704 0.4953308432304917 1.501962649195415 219 255 219 582.266968 412.065857 6
-1.3809169697323673 0.36753636538006113 2.3927227730490062 158 168 184 164.229156 349.360199 6
-0.62265102376538906 -0.36273938704555242 2.5583986021281109 224 225 255 289.640503 235.892776 6
-1.541716077531333 -0.48868261590082906 3.576618208666531 118 139 255 217.976868 241.864746 6
0.034706098922804962 0.14745531239669385 5.0636901555425551 164 255 115 382.206024 304.570435 6
-1.7457824184761903 0.37422760745139488 2.9240508816484834 227 200 171 152.285217 340.402252 6
-0.40973845896344385 0.43111100605009828 2.4056077029578335 215 220 224 316.514374 352.346191 6
0.80413955311936558 0.34728585854892008 2.6048133986919875 85 255 69 498.659424 334.430267 6
-1.0693150426983542 0.47151308095659944 3.2584950868633786 122 130 125 256.794678 346.374207 6
-1.3011424752227065 0.14823916303060641 3.3243208101240924 95 113 132 232.906799 304.570435 6
1.2794934019008908 -0.70840345515614089 2.3425246519402472 233 255 204 594.210938 173.187103 6
-1.1735813385553548 -1.9346995602737866 5.0636484982236993 196 211 225 292.626495 140.341278 6
-0.19503346343372385 -0.044137133659686342 6.3330086941798713 118 138 255 369.067719 286.654541 7
1.5213539642943112 -0.84610100458402671 2.1525995917899983 255 203 214 659.30542 139.74408 7
0.70925825376943141 -0.54950405986797923 3.9044116075843975 255 240 242 451.480896 232.906799 7
0.13605480639706147 -0.54203212395064893 4.721531857582419 40 255 0 390.566803 247.239532 7
-0.45127982448146353 0.43548100928418498 1.7633548045978906 255 53 73 283.07135 383.400421 7
-0.25839116195904155 0.46456179974790168 0.81699905361238168 59 59 255 265.155426 505.228607 7
0.72790817584854361 0.45799506323102179 1.3085552770621862 159 255 120 598.391357 422.81543 7
-0.35156823910173607 0.3434498744587226 0.69627520382831509 209 200 255 193.491806 480.146332 7
-0.13328594807091676 0.39347455424037886 1.2032807184647947 255 216 216 343.985443 412.065887 7
-0.9693891195931652 0.44784686347533242 1.3886836847531683 255 95 106 111.078629 412.065887 7
-1.3524938920822764 0.37308570563894261 2.60946287187884 214 255 205 182.742264 347.568604 7
-1.9324166615382659 0.46203393627612055 2.4100553832173319 255 152 141 75.2468109 361.901337 7
-1.0545739750403036 -1.1227392108579595 4.0685494919427017 255 227 228 279.488159 179.159088 7
0.44404391868696291 0.35842461050793095 1.2980509989655475 255 138 154 515.978149 394.149963 7
-0.78906813522804953 -0.13511281538705319 2.3866540913960277 141 255 86 254.405899 265.155426 7
1.1888776412925237 0.19283972152693638 2.1601195300473992 181 255 136 594.808167 326.069519 7
-1.7678051195404896 0.32387983836827977 2.9700746790286727 180 178 255 157.659988 336.819061 7
-1.3128992813123626 0.17468119250705019 2.7999686595060842 107 116 136 204.241348 315.319977 7
-1.7488612535875956 0.17921548574840232 2.762479929445929 255 239 243 143.327271 304.570435 7
0.94788671404641744 0.18691918738228591 3.1300966860695727 141 155 255 501.645416 311.736786 7
-0.58481195100493899 0.29893095714572876 2.6671665151045016 236 237 237 300.987244 329.65271 7
-1.0690225553210082 0.45446513870242294 3.2626329646783825 115 112 255 261.572266 343.985443 7
-0.98197734602297881 0.33084246458870742 4.02357323397871 197 255 188 290.237701 315.319977 7
-1.2232808566948674 0.16186884218191297 3.1280965943887589 95 113 132 232.906799 304.570435 7
0.59715885942929403 0.4627226880734765 0.84490783233253142 199 202 203 648.555847 501.645416 7
1.3990706305561447 -0.81452397050398262 2.2094480515706425 255 203 215 627.056763 146.910446 7
1.6515727758853411 -0.64509255163089541 5.0214493230323782 238 241 245 508.811798 243.656357 7
0.83912244387226254 -0.63457250736350224 3.5234494282758178 235 237 242 472.97998 211.407715 7
0.7698095942716241 -0.63404567758466279 3.769503571283038 245 255 243 462.230438 229.323624 7
-0.93875312956719403 -2.0457955472109197 5.6236865807202339 226 255 187 322.486359 146.910446 7
-0.79950312588892558 -1.3030530561116658 3.4258091086613049 207 226 255 293.820892 143.327271 7
