ply
format ascii 1.0
comment Written with hapPLY (https://github.com/nmwsharp/happly)
element vertex 191
property double x
property double y
property double z
property uchar red
property uchar green
property uchar blue
property float ix
property float iy
property uchar octave
end_header
0.19780673057476919 -0.90184134957386652 3.5255866850333222 103 255 26 406 188 0
-2.8053644720626392 -3.1939974300483014 4.5422828756316838 85 124 255 145 19 0
0.72290802660398901 0.33369648395017354 0.93955416432841932 255 201 201 679 424 0
-0.25377547954312107 0.28990821104023079 1.1862659535571034 168 173 173 304 382 0
-2.0295384422667748 -0.68132843014122402 3.8387742677017984 205 205 255 181 220 0
0.74216672605903766 -0.11339489023753654 1.6648403728633858 102 116 127 556 262 0
-0.1195099064419084 0.43905013723065622 0.62388879308273748 153 255 145 310 556 0
0.42236730658588784 0.44241128255635803 0.7331891602392353 95 115 255 605 520 0
0.21402307604714574 0.45237937042351867 0.67796479680165878 66 97 255 505 546 0
0.34064737197074685 0.22130552756127905 2.4643355107189375 43 75 94 436 322 0
0.73206178537859823 -0.19409728204331883 3.7071534612373624 41 55 71 460 268 0
0.720992199983996 0.06386842985944588 0.94870780114844555 177 114 116 676 313 0
0.78196089716973738 0.010440573857134549 0.96015212077788614 239 255 233 698 292 0
0.73502876030553321 0.011575379659807702 0.97028709722779194 233 236 240 676 292 0
0.7379314355894856 0.43179964815234356 0.94455165739435298 195 255 197 682 463 0
-2.4999436959617944 -1.0332078118195929 3.4967928779133537 222 226 255 109 175 0
-0.16038448262899657 -0.57844377939692815 4.0229487726163384 255 37 89 367 232 0
0.79577582482323161 -0.011760911600280508 0.98035300968431915 237 240 255 697 283 0
0.71542219381516048 -0.011232343314362821 0.9401292990206821 236 238 240 676 283 0
0.82584185573469959 0.31152342771975783 0.98985841900895344 200 197 255 705 409 0
0.70328627041178704 0.24523348587478147 0.94450309258521115 35 255 22 670 388 0
-2.8172826305932954 -0.30825005948228024 4.1006273868147876 233 236 255 121 259 0
-0.41315918728205547 -0.54841733838897921 1.4263569903786595 255 140 167 271 142 0
0.64802493234299341 -0.15461278503925296 1.1122054771261769 255 54 71 607 235 0
1.3212800555005297 -0.19836592789307281 5.4707400151155667 76 255 61 478 275 0
-0.3105291943482722 0.058649528632831543 1.3478232854282894 255 185 186 295 304 0
0.62041173421906548 0.40607592033654638 1.0776168658712753 107 116 140 604 433 0
0.5291592893718331 -0.89772419354986499 3.499706328095149 167 173 255 441.600006 188.400009 1
0.65341572713752782 -0.15878634345843079 1.1307359560781383 84 255 42 606 235.200012 1
0.61286942321310889 -0.074780760174580116 0.99639188061728823 236 239 255 621.600037 259.200012 1
-0.085784657448020774 0.41903413609523438 0.62822008181240407 175 176 255 333.600006 544.800049 1
-0.11933929678435062 0.40577359734411811 0.62640769250032458 161 161 255 309.600006 537.600037 1
0.70479210397031267 -0.15909975315520614 1.9081995475895699 41 255 23 526.800049 255.600006 1
-2.3308877024035346 -1.0304323566838371 3.4919718462121696 227 255 220 126.000008 175.200012 1
-2.2145453033937166 -1.1842202225874618 3.4318707172330698 208 255 180 134.400009 154.800003 1
-0.42178288016809939 -0.6029061044005215 4.4836749297430938 77 106 255 345.600006 235.200012 1
0.76421445189439885 -0.012225071219450063 0.93569662315346902 237 240 255 697.200012 283.200012 1
0.71948955354183797 -0.20352735225883439 3.6059502106855446 43 57 72 460.800018 267.600006 1
0.33813747216560752 0.21487267321871059 2.418402914687968 255 34 70 435.600006 321.600006 1
0.63251191514820027 0.41579240115549992 1.1095359111284981 255 105 115 603.600037 433.200012 1
-0.17222576054556532 -0.37749902071914493 1.4502273365669252 61 88 255 337.200012 187.200012 1
-2.305153817264054 -0.77548594697555273 4.3391352860087311 205 205 255 181.200012 219.600006 1
-0.41462076863493313 -0.54988213539640096 1.4262433808074619 255 139 166 271.200012 141.600006 1
-2.6509004726955512 -1.3983380529879692 3.9112131255622344 209 255 182 126.000008 151.200012 1
-2.8813666023647517 -1.928830641622679 4.0587697231543647 200 255 175 114.000008 105.600006 1
0.80596145357808802 -0.15492348316436744 0.95109179355237616 225 232 255 709.200012 225.600006 1
0.1987070786747063 -0.58295116251596124 3.6081391962532119 66 99 255 405.600006 225.600006 1
0.65001919349166326 -0.1570335669824845 1.6627500178907253 255 11 25 531.600037 252.000015 1
-0.22535167345468421 0.42497131986742548 0.69544414674532229 166 255 165 258 520.800049 1
-0.37500786630100746 0.42209946447940094 0.70948725589862793 71 255 35 182.400009 516 1
-0.30790917831000097 0.056660555435155517 1.341772234181043 255 184 186 295.200012 303.600006 1
-0.43217306800962363 0.033027113846645882 0.73434731791675945 57 68 255 157.200012 303.600006 1
0.4248288264141511 0.44942914881791973 0.74621793581579987 92 97 117 604.800049 519.600037 1
0.630843859073977 0.38232556363265219 1.1043509712760455 255 212 213 603.600037 421.200012 1
1.3327502566502525 0.17201133607771457 5.0947179469277328 255 51 65 483.600006 300 1
0.41465366268685794 0.43665007738151451 1.5615479233989076 255 75 84 487.200012 393.600006 1
-2.5761703602271488 -0.35808171388923954 3.6024460698806795 229 233 255 109.200005 249.600006 1
0.75536834333460789 0.37935718825448567 1.7505597769945491 166 168 171 548.640015 368.640015 2
-2.2970757802224933 -0.55436416784717824 4.2271222038516925 255 105 114 175.680008 237.600006 2
-0.43704660199111833 0.030668603046496573 0.73992440289377737 43 59 73 156.960007 303.840027 2
-0.4027593283463089 0.3410871294723517 1.3774455034274304 155 161 162 272.160004 383.040009 2
0.78437020642148059 -0.1147323666311124 3.8196229770376946 255 72 82 463.680023 277.920013 2
0.73726615149457164 -0.19574286295025053 3.7411963507094277 255 34 47 459.360016 267.839996 2
0.77291714043282389 0.24424460248656393 0.94451123744597465 114 255 69 698.400024 387.360016 2
-0.086212126845035875 0.41750850835743192 0.62722814063102095 168 171 171 332.640015 544.320007 2
-0.11685829317395302 0.3914142710396713 0.60649267591506195 161 161 255 309.600006 537.119995 2
-0.1830398037408672 0.28110914855759311 0.99487874879536542 150 168 178 312.480011 394.560028 2
0.087228802090085156 0.20342550528231701 0.8042299153068907 133 140 150 424.800018 384.480011 2
-0.46640454911705687 -0.64862333084671042 4.7048605081229491 74 104 255 345.600006 234.720016 2
-0.43881461934109089 0.083564479226841237 0.7420298837994741 58 69 81 156.960007 334.080017 2
-0.35673282953549768 -0.27353647650724472 1.4012421016338024 226 255 200 286.559998 213.12001 2
-0.17109386084614397 -0.37774072746756038 1.4533445649947498 0 50 74 336.960022 187.200012 2
-2.7247082214339988 -1.1177679684565203 3.8039370107780099 226 255 220 110.880005 174.240005 2
-2.7492842714211485 -0.38264268581415228 3.8392061001838163 229 233 255 109.440002 249.12001 2
-0.42042300086945439 -0.55582773182012135 1.4370680867908494 199 255 139 270.720001 141.12001 2
-2.5512788144276568 -1.7254106562127285 3.6290213965467677 184 200 255 113.760002 105.120003 2
0.62290624570120057 -0.10412205346265939 1.0186941230194269 255 226 230 619.200012 247.680008 2
0.64458088323547469 -0.15503091939618791 1.1093792192591421 81 255 40 606.240051 234.720016 2
0.81714760787268903 -0.073874901814820648 0.95870250437582838 255 82 93 711.360046 259.200012 2
0.68392365806558697 -0.85308053917665683 3.7970058671684286 215 219 255 453.600006 203.040009 2
0.69569008021220891 -0.15706517372836212 1.8761453612004062 255 28 41 527.040039 256.320007 2
-0.38861101726925718 0.45056230688526466 0.89258932528150381 84 255 50 218.880005 482.400024 2
-0.37484927139940016 0.4218355409124977 0.71036806935213148 41 66 255 181.440002 515.52002 2
-0.37327931234835221 0.23368894922100253 0.90261904968896378 105 255 72 226.080002 387.360016 2
0.82714931683041759 0.34368846239396883 0.99374810692207638 200 199 255 705.600037 421.920013 2
-0.42796345304094818 0.030037066061014538 0.72810173197936767 53 64 255 157.248016 304.128021 3
0.25840090674614441 0.34923530995779412 1.5659974262782563 255 75 88 447.552032 376.704041 3
-1.9650079577772752 -0.61760298291542759 4.0103467018893575 206 208 208 196.99202 228.096024 3
0.50971097102631013 0.39880572919945079 0.99278466197205861 136 255 101 582.33606 440.640045 3
0.29018846272227022 0.33506050410470545 1.9357345341584176 97 130 131 440.640045 352.512024 3
0.96147907894458351 0.40696384044251155 3.0616479136479011 112 255 68 506.304047 336.960022 3
-0.45205088309133601 -0.54359423876482205 1.4452950852498205 201 255 146 266.11203 145.152008 3
0.82071303793012906 -0.077349321480796721 0.9696259317336392 85 96 112 708.480042 257.472015 3
0.71566803010377655 -0.014553029695519054 0.94097892307046216 255 236 237 675.648071 281.664032 3
0.68392365806558697 -0.85308053917665683 3.7970058671684286 191 203 208 452.736053 203.904022 3
0.53650354751048024 -0.99556487082257816 3.7877617547875362 128 152 161 440.640045 188.35202 3
0.20690851393688892 -0.9546797347775049 3.6276199608485138 103 255 26 406.080048 188.35202 3
0.68518020989229922 -0.13814882731530889 1.7338699618773257 42 50 255 537.408081 257.472015 3
0.65676740995920158 -0.1443695917489787 1.7615500585088057 255 21 31 527.040039 255.744019 3
-0.36777058084978742 0.43419475033341975 0.86150587732400075 255 52 66 219.456024 480.384033 3
-0.24999211050498693 0.45580644640268037 0.75437966329673545 168 165 255 257.472015 520.128052 3
-0.077186899646071727 0.3551812991776539 0.6149285493317157 168 155 255 333.504028 509.76004 3
0.64036573185756762 0.43768408328071523 0.88249765566045824 78 107 255 661.824036 480.384033 3
0.83397232334608296 0.34746581622755951 1.0012983497379253 200 199 255 705.024048 421.63205 3
0.71177651251385843 0.011948970000840182 0.93814674058095571 255 233 236 675.648071 292.032013 3
0.64171139678304967 0.33723874964739381 1.0858963920885036 255 216 217 611.712036 407.808044 3
0.71464016584753476 0.30952687469172258 0.93778016368810557 255 78 78 675.648071 414.720032 3
-2.6964420886073848 -1.1214243818448761 3.7769216657784366 226 255 220 110.59201 174.528015 3
-2.0991600015065632 -0.22295728410445476 3.2739232644212195 231 255 232 134.784012 263.347229 4
0.65808109027346129 -0.1232309866776468 1.0031175646297628 235 255 226 634.521667 242.611237 4
0.63924017590633841 -0.10851104961555942 1.0594524653395829 226 230 236 620.00647 248.832031 4
0.42252978189704737 0.44261777928590401 0.73527118098024025 95 115 255 605.491272 520.473694 4
-0.43409308486654763 -0.53394913568660163 1.4110273980949388 171 201 255 265.420837 145.152023 4
-0.22625370992751204 0.4268533817895685 0.70028960947046492 168 165 255 257.126434 520.473694 4
-2.5378633602445806 -2.0288128667176064 3.6106308972334009 172 255 105 114.048019 72.5760117 4
0.77915819226979821 0.42816126770377844 0.94301350304081777 111 255 73 698.803284 466.560059 4
-0.24465014639453886 -0.75902625275895685 4.2547991644543464 40 88 119 360.806458 219.801636 4
-2.5488023907688464 -1.0952467377367521 3.7626231214482231 227 255 220 122.342415 176.256027 4
0.8191655865089309 -0.060519248984458471 0.98642331663037597 110 129 255 705.024109 265.420837 4
0.80468068610559351 -0.1544586807721427 0.9533959131242199 255 221 225 707.097717 226.02243 4
0.6796148328992877 -0.15219719153411007 0.96815017159468431 255 220 225 655.25769 228.096039 4
0.081028924622174592 -0.7298850921179888 3.4239216277813305 255 10 27 391.910461 203.21283 4
0.63674260142641503 -0.88881399399313488 3.3861356913451517 218 255 189 454.118469 186.624023 4
0.056392437933197648 -0.95760076420650442 3.6463421435254157 255 19 71 387.763245 186.624023 4
0.5217075376474346 0.35443765735386379 1.4944777394882038 84 84 100 520.473694 377.395264 4
0.39984852638834562 0.34338684747841985 1.5177568910860555 107 135 255 485.222473 375.321655 4
0.7090094013987559 -0.18749583124636943 3.5487381383003189 43 57 72 460.339264 267.494446 4
0.64406093589055424 0.34301897224198369 1.085602243145831 255 217 217 611.712097 408.499268 4
-2.7297512226421761 -0.62685990466698549 4.9081283758480598 66 78 99 172.108826 238.464035 4
-2.6663241131249764 -0.52360473027158982 4.6866800297432576 59 85 255 161.740829 244.68483 4
-0.24506968210233182 0.28306438338573231 1.1686780541836679 164 171 172 304.819244 381.54245 4
-2.5513111873771339 -0.34848397898626721 3.5935735070124051 255 227 229 111.974419 250.90564 4
0.28968706360174129 0.3313364235797272 1.9303350162986352 96 130 131 440.432709 353.341492 5
-0.41283657165305021 0.25507796782952608 0.62854292572754777 155 255 152 134.369293 440.432709 5
-2.2946836912576987 -1.7675516250431165 3.7896216758113814 42 71 255 149.299225 109.486099 5
-0.36435042868345136 0.42898006204593681 0.8601049003064144 67 87 255 221.46051 480.245819 5
0.78565046938040761 -0.083517235210844976 0.91531538043816052 255 175 179 711.659607 253.80867 5
-2.8105086221542566 -1.2002025303786406 4.1266685227608164 222 227 255 121.927696 176.670746 5
0.70856425556720692 0.38581546731701233 0.85251779655829707 255 73 88 699.218018 465.315918 5
-0.19095168460037226 -0.68677862526467537 3.8319307195222061 255 39 84 363.294769 218.972198 5
-0.33783581243395533 -0.27104996131087689 1.3712875353676393 201 213 225 288.645172 211.507233 5
0.62467527445830917 0.40857400273145311 1.0974357403484492 122 132 156 604.661865 430.479431 5
-0.087064247256914529 0.36588276039068496 0.63285038549902206 170 161 255 333.434937 507.61734 5
-0.1476421492981681 0.35876603115083927 0.67390372680259492 162 164 255 301.086761 487.710785 5
-0.37361098463892173 0.41912141969194716 0.70558611018635076 255 28 36 179.159058 515.082336 5
0.089603430263308248 -0.82964524719384847 3.7891632346629986 75 255 16 390.66629 206.530594 5
0.19630155106361827 -0.91343873435722833 3.5279582592236487 70 105 255 405.596222 189.11235 5
0.39954833486717789 0.42765839208824691 1.5702436102504056 85 116 255 485.222473 390.66629 5
0.40165830336818437 0.34431011067186335 1.5207332556690292 107 135 255 485.222473 375.736359 5
0.35782277238712645 0.27679062182521141 2.3051452473016614 85 100 255 437.944397 333.434937 5
0.072892229559618521 0.27924386355707714 1.3583112979699306 13 53 73 400.619568 368.271423 5
-0.23423242842148428 0.27966464111107575 1.156119491622857 255 158 168 307.556396 379.220032 6
-0.3394462625818182 -0.27430750685112326 1.3677829159780466 213 225 255 289.640503 212.004898 6
0.85012369153945522 -0.16697561659905591 1.013873603884127 255 222 226 707.678345 223.948837 6
-0.23890810366250914 0.44173317224839703 0.73353459721185299 255 156 158 259.78067 516.575317 6
0.65245892137582229 -0.14546734373865133 1.7219441839453846 28 39 50 528.519287 256.794678 6
0.76399614116624637 0.42939678454369978 0.92885290842609158 255 84 97 695.734375 465.813599 6
0.83618468610587016 0.35161018670042737 0.99679015310786112 255 205 206 707.678345 424.009796 6
0.60887696273106995 0.39892151138091347 1.0743001005977131 255 119 131 603.168884 429.981781 6
0.8083422996681966 -0.059324054739515061 0.96409039773761995 104 115 133 704.692383 265.752625 6
0.55843408993352806 -0.15770730613099918 2.6365048098901256 255 40 51 459.841614 265.752625 6
0.16869562040851249 0.27494806798458882 0.83851906349228711 190 255 190 462.827606 415.051849 6
0.057736429364317082 0.27064431673885586 0.48379436300774981 77 90 112 432.967773 507.617371 6
0.18670146218097008 0.44462647878527883 0.85120015523035664 123 143 255 465.813599 483.729492 6
-0.39422295922547979 0.43084603023861517 0.73205207949657702 255 16 20 179.159073 513.589355 6
-0.42125887022919539 0.36366851001671979 0.70766638748896349 158 165 162 152.285217 486.715485 6
0.08117631043547735 -0.74964778200581805 3.4183148984394882 12 38 65 388.177979 206.032928 6
0.19157486556203351 -1.0629373152667552 4.0979648301907217 255 27 70 403.10791 194.088989 6
1.0446260745930589 0.10280971960904806 3.9986688947801001 255 57 70 483.729492 295.612457 6
0.38931814719365987 0.41094200457522972 1.5054433178624125 255 74 92 483.729492 391.163971 6
0.48731783418940655 0.3091010932380841 1.3202392912618433 255 79 79 519.56134 376.23407 6
0.40650624344339181 0.35647968047246958 1.5673975160615108 255 95 108 483.729492 376.23407 6
-2.3015365477987793 -0.57482897384346765 4.1761127915050942 83 104 255 173.187103 238.878769 6
0.40181351879073007 0.34467574795829614 2.7778220526836819 117 255 53 438.939728 334.430267 6
0.82574226009337282 0.060916252262871631 0.98321730765032722 255 84 92 707.678345 316.514374 6
-2.8183063723945447 -1.9223828904469755 3.9898900799568731 179 197 255 113.467415 101.523476 6
0.65304951834071256 -0.11835834889156309 1.0040066885684138 235 255 225 634.223145 243.656357 7
-0.4177536654789924 -0.60884709565925554 1.4719940605446131 255 126 156 275.904999 128.994537 7
0.52426781164621916 -0.14638062604677651 2.4637923748329182 89 255 53 462.230438 265.155426 7
-0.26099101732456109 0.2883636715948043 1.0164061570420753 174 255 159 286.654541 397.733154 7
0.61402462141213277 0.39744088940075856 1.0138511812147002 93 116 255 609.140869 437.148163 7
0.58929312367631492 0.37906019259058571 1.0342107288544244 130 153 255 601.974487 429.981781 7
-0.44683058244973584 0.39025670206874769 0.67712158271225187 133 144 145 132.577713 505.228607 7
0.074511208648648186 -0.84249202971279558 3.8564927316518411 83 255 19 390.566803 207.824539 7
-0.22788011842190725 0.28467284037041246 1.3458681280605069 169 255 153 322.486359 361.901337 7
0.67299919674341191 0.057963885782154605 1.9226300385038388 255 61 71 519.56134 300.987244 7
0.99912754874070664 0.095391578319790532 3.8251209503683237 255 45 57 487.312714 300.987244 7
0.75003430008716609 0.51927966426911165 2.2358597966984251 255 79 79 519.56134 376.23407 7
0.79268745715035505 0.44177025294516692 0.97639151105709066 255 84 97 695.137207 465.813599 7
-2.6847122998976909 -2.0419504221190845 3.7274603532368511 255 104 133 107.495445 75.2468109 7
-0.27777975523528975 -0.61714803934923523 1.5439537305255797 255 138 166 311.736786 139.74408 7
