ply
format ascii 1.0
comment Written with hapPLY (https://github.com/nmwsharp/happly)
element vertex 114
property double x
property double y
property double z
property uchar red
property uchar green
property uchar blue
property float ix
property float iy
property uchar octave
end_header
1.1413577881409918 0.52663264450589864 1.3752431993874383 255 144 157 703.200012 434.400024 1
0.80599161732838276 -0.55699845519485147 2.3665479856186566 236 242 255 517.200012 198.000015 1
-0.17230704557695598 0.43889893341960751 0.63439325635385746 255 147 159 279.600006 552 1
-0.4138655471591508 -1.6930743013472689 3.0049348079226279 154 159 154 332.640015 72 2
0.97691641927076189 0.3445315751678415 1.6135949920729926 66 81 102 616.320007 367.200012 2
0.64111925717233875 0.53439327903157063 2.155825633110819 161 255 128 498.240021 381.600006 2
0.54313224388424319 -0.26832993839969782 2.9782334550603817 184 195 255 453.600006 254.880005 2
-0.44484952928339849 -1.9780552268602816 3.2550188041155241 255 158 165 331.200012 51.840004 2
0.87085715496992022 0.41790004237904832 1.3841698127907005 255 221 222 627.264038 404.352051 3
0.55164840828089101 -0.018294127911157865 2.805604391744339 255 201 212 459.648041 285.120026 3
1.2952948014227881 -0.34766055635788851 1.6585605356627244 177 255 90 686.016052 207.360016 3
1.2117486777702422 -0.40280825173005352 1.6526408460918365 255 215 222 667.008057 195.264023 3
1.0995572898535988 0.62109452749570004 1.3359072614003331 67 255 25 698.112061 464.832031 3
0.38094220206719465 0.61536018873499043 1.6591622525621705 255 154 163 471.744049 430.272034 3
0.42687093976033252 0.38455302408346048 2.9194786234875689 144 255 38 438.912048 336.960022 3
0.19300908581699261 0.077812401732146597 4.5317974532588696 173 191 255 397.440033 292.032013 3
-0.46027086305374931 -1.3430564063304653 2.7741184065408442 182 175 255 317.952026 101.952011 3
0.9949661910285843 0.6155676537143866 2.1151808746773222 34 55 255 565.05603 399.16803 3
-0.13956973722430854 0.59098914112796808 2.6778639500545234 180 195 205 364.608032 374.976044 3
-0.44797845760257937 -1.7929593458614752 3.2139384992292035 255 157 164 331.776031 72.576004 3
-0.2276894029090788 -0.10227442060881153 0.29828327653251474 255 97 118 91.5840073 155.52002 3
0.87980616401817158 -0.59437516124654199 2.5710856253519223 228 235 242 516.672058 196.99202 3
0.47568219118699107 0.67316902998696659 1.6719855414014271 155 255 120 494.208038 444.096039 3
0.53058174490578769 0.034786660702625649 2.6649363718735017 255 200 210 459.648041 293.76004 3
0.8546905051384992 0.70791166788945703 2.6463640402832036 255 121 133 511.488037 392.256042 3
0.33370366520454131 0.13606937355022064 3.2651561532715405 192 255 147 418.867249 304.819244 4
0.807296308104553 0.61200433725672487 2.174927765619147 138 152 170 528.768066 398.131256 4
0.17373545403041524 0.50979552819547469 1.785077781618436 255 148 169 423.014465 396.057648 4
-0.36400445676314908 -0.89208162242024636 2.7869518594223059 255 155 164 331.776062 167.961624 4
1.0006675608932036 0.35193197535582466 1.666376702624385 255 51 66 615.859314 369.100861 4
-0.11146349378488618 0.45770632434781083 2.0863008747250555 178 186 194 364.953644 373.248047 4
-0.24037724825856666 -0.011810031022003398 0.30627680966629311 163 255 114 78.796814 273.71524 4
-0.42207483832136461 -1.8125684716287509 2.9841390497633888 170 166 255 329.702454 51.8400078 4
-0.22606164764247083 -0.10133871952343243 0.29505247019902114 255 97 118 91.2384109 155.52002 4
1.0835504709621304 -0.44409210093939167 1.6479771130060481 239 255 222 638.668884 180.403229 4
1.2275692175636941 -0.83328783979025545 3.6152676846863292 228 235 242 516.326477 196.992035 4
0.81385532553660744 0.64608812666682858 1.2967789859707066 4 13 24 628.300903 481.075256 4
0.57415587879805563 -0.47783710722069561 2.6889259771030991 245 255 239 466.560059 217.728027 4
19.188935587059753 -31.151682736842375 58.292363043404109 175 197 221 508.032074 82.9440155 4
0.67677911937154667 0.56359419945291911 2.3431562607187759 123 135 149 492.687439 375.736359 5
1.0915833686654157 0.62450358006213413 1.3357353252563788 255 23 33 699.218018 465.315918 5
1.1770727944465076 0.5637999595153278 1.4206681735099709 255 121 138 699.218018 445.409332 5
0.72001668520628215 0.59412063882092558 2.1528872389011351 118 131 149 512.593994 393.154602 5
0.69769318623798782 0.61921819735754169 1.2097684977653209 50 65 255 609.638489 482.734161 5
0.2334745393876676 0.63898947713346455 1.469147640200716 35 255 13 442.921021 457.850952 5
0.31181555303238562 0.6513368349057741 1.0885873454885768 255 227 226 495.175751 517.570618 5
0.3372292802424921 0.62631220070948379 1.5671372430136339 154 175 255 465.315918 437.944397 5
0.37683382300709645 0.61260881646984833 1.6553550921150544 157 255 134 470.292542 427.991089 5
1.0149425805659535 0.56034771877224332 1.4164023968225194 140 166 255 661.893188 440.432709 5
-0.4095348460870758 -1.4017435304671235 2.6769898595889616 167 173 166 328.458282 82.1145706 5
-0.33287896804286454 0.62894348734120897 1.3866697863465083 255 155 169 291.133484 465.315918 5
1.0503006407306472 -0.34116639450626085 1.6207665872604125 167 194 255 629.545044 209.018906 5
0.98603904257663544 -0.36615895555024836 1.6476058924403736 230 236 243 612.126831 206.530594 5
0.55665404505571403 -0.48065244366699011 2.6169481225573632 255 240 242 467.80423 216.483871 5
-0.17957061042767419 -0.051552240161589769 0.31406799368819582 34 50 255 161.740829 223.948837 5
0.81240319867105004 -0.25701616659210974 2.1707924545456665 244 247 255 525.035583 243.855392 5
-0.68221487824587435 -1.7257621778399455 2.8286325054660324 255 176 184 291.133484 49.766407 5
0.86792618610187566 -0.58626293703934829 2.4988217870651859 235 242 255 517.570618 196.577301 5
0.95129088958577634 0.63626738279397377 1.2422060148516376 21 255 9 674.334839 485.222473 5
-0.21728585765200004 -0.16740418678357338 0.2995766358176839 0 255 0 106.997772 77.1379318 5
0.16677358560050703 0.4834779775753511 1.6828321668581543 255 148 169 423.014465 395.642944 5
0.57811052143093766 0.62974468009301021 2.9900840564966185 202 209 216 460.339264 368.271423 5
-0.41278362205206554 -1.801493615134504 2.9431891541117299 162 170 165 328.458282 54.7430496 5
-0.093920965872996698 0.67161216755328579 1.4708109480331064 162 255 148 358.318115 462.827576 5
0.94629205762833135 -0.46013683788883919 1.9532896741086425 233 241 255 569.825378 196.577301 5
1.1063440883683064 -0.47777056341368629 1.6449080296644158 255 218 229 639.498352 179.159058 5
0.63524676533154567 0.64939811629953781 1.1389940465015069 137 255 128 602.173523 507.61734 5
0.78121295271620683 0.58698672942022068 2.0685357218763691 255 139 153 527.523926 398.131256 5
0.98149826197004619 0.38101132434663032 1.8791201183364681 255 162 174 587.243591 365.783081 5
0.83530594930828528 0.40565946655742718 2.2052221106273526 136 151 169 528.519287 361.304138 6
0.58235592224504518 0.63823020567232902 3.0527961466528053 255 184 197 459.841614 370.262085 6
0.27597758980511689 0.45445479071660644 2.1724768993495562 57 120 152 432.967773 367.276093 6
0.17400499892646826 0.064089005346766204 4.9252739835676813 173 191 255 397.135956 292.626495 6
1.1134596113670443 0.64763144124770644 1.3803071501791715 255 13 16 695.734375 465.813599 6
1.1428330528861601 0.59830779611402374 1.4143086516793373 255 121 137 695.734375 447.897675 6
1.0893201627373896 -0.3744872608141957 1.7265173075883791 191 255 137 630.042725 209.018921 6
1.0061299696489341 -0.21532246613935602 1.5041348833780352 255 132 164 639.000671 235.892776 6
-0.38038692513474626 -0.88431715398443966 2.778913035829996 255 156 164 331.444275 170.201126 6
-0.23502338825867675 -0.013377279859075553 0.29406922600205121 114 133 164 80.621582 271.724609 6
0.46264959085308965 0.66026832876785579 1.6404219063707037 124 138 159 492.687439 444.911713 6
0.36750355434492032 0.60479005180225309 1.6390635701816976 143 151 166 468.799591 429.981781 6
0.61676715066010646 -0.56397845346569531 2.6475091217279063 244 255 238 474.771545 206.032928 6
0.96889335093388407 0.5841982536238628 1.7816122066324436 255 138 139 591.224915 412.065857 6
-0.054328557550902934 0.086168552959157374 1.7015223952540781 110 138 255 373.248077 313.528381 6
1.0119963132086582 0.36959273466682485 1.5131612031874946 255 140 159 639.000671 382.206024 6
0.64542636685072607 0.64942488890380301 1.1333478380044761 126 133 130 600.182922 507.617371 6
1.0288377693135933 -0.5053625859110803 2.1549701636574978 255 224 233 567.337097 197.074982 6
-0.10688542722306971 0.68170695700844308 1.5104069765926873 255 134 152 355.332153 462.827606 6
1.0072224923298709 0.38239860091714839 1.9296706060977886 185 255 148 582.266968 364.290131 6
0.80133378513983189 0.61369645529041494 2.1922688331362101 155 173 255 525.533264 397.135956 6
0.18104845497490363 0.62898157531945964 1.7993168849255703 116 133 255 421.023834 426.995789 6
27.831382503649021 -28.712053584449954 71.168642010671419 255 205 217 531.505249 134.369308 6
16.643561562864182 -27.188659361943674 48.342771156424504 162 190 218 516.575317 74.6496124 6
0.81850923216521898 -0.27111957957466915 2.1962526181542064 244 247 255 525.533264 244.850739 6
0.34349771946772578 0.60926792480338587 1.5067131231658264 150 172 255 465.813599 440.731354 7
-0.31505541591929997 0.63357846071243096 1.4506915438625816 165 178 172 300.987244 455.064056 7
0.78570810786730805 -0.53016253477214703 2.2365418961553223 255 229 235 515.978149 197.074982 7
0.99965331390557077 0.46925853090542158 1.6770710764722851 143 160 187 616.307251 397.733154 7
1.1256659628895775 -0.38607074997778157 1.7870661911909469 255 202 214 627.056763 207.824539 7
1.1397203124929514 0.303818443634567 1.7916008541157078 162 255 117 630.639954 354.734985 7
-0.17570098568052295 -0.046933219129247528 0.29916465465622188 34 50 255 161.243179 222.157257 7
-0.5107377679795988 -1.3743031700100163 2.7995046651619031 169 178 173 308.153625 100.329086 7
0.5724247232446773 -0.50051195269693427 3.1887091929568792 255 129 172 451.480896 225.740448 7
-0.21581988433188437 -0.013756010236591676 0.31679048446910496 65 255 4 118.244995 272.321808 7
-0.24144737288261675 -0.015997120314176327 0.308455353605261 163 255 113 82.4131775 272.321808 7
-0.26774019963825468 0.70922656562326225 3.363756922800448 210 255 160 354.734985 376.23407 7
0.33088764322788156 0.56150388343322 1.4705300807852106 140 157 255 465.813599 429.981781 7
1.0244070268341872 0.58672917864262897 1.5825454372537333 72 255 31 630.639954 429.981781 7
0.18871308684135379 0.56068210105109517 1.9081633074196578 191 255 152 422.81543 397.733154 7
1.216684832157656 -0.40914701390718655 1.7100704220813263 255 223 230 659.30542 197.074982 7
0.10100288208557462 0.75227665863715565 1.6173022762603928 136 150 172 408.482697 472.97998 7
0.79713300028960132 -0.27426601678816231 2.1209123532987242 255 242 244 523.144531 243.656357 7
1.031915090933351 -0.21210527305685845 1.5505914448507028 166 189 255 637.806335 236.48999 7
30.734531907357972 -30.669667247834898 59.87328769150146 163 193 221 580.475403 93.1627197 7
