ply
format ascii 1.0
comment Written with hapPLY (https://github.com/nmwsharp/happly)
element vertex 81
property double x
property double y
property double z
property uchar red
property uchar green
property uchar blue
property float ix
property float iy
property uchar octave
end_header
-0.5427703780309705 0.73180209632405946 2.5357829012212303 215 212 255 301 398 0
0.063973583120790156 0.18091134323068658 1.5549152056026836 247 251 255 401 332 0
1.5095417437629801 0.80262575987067841 3.3200080403802854 255 154 172 559.200012 381.600006 1
-0.7840146458708892 0.72854134478766053 2.359704567024048 175 255 189 258 405.600006 1
-0.21590933349177099 0.74335119404792316 1.1516752534244485 13 22 255 309.600006 536.400024 1
-0.88068577457282826 0.80934311942801118 2.6225669733073378 188 185 255 257.76001 406.080017 2
0.071379201329979658 0.19750179570528692 1.7256717951004665 242 247 251 400.320007 332.640015 2
-0.46996067830423494 0.68747802567564964 1.1854218693346379 255 220 220 231.552017 513.216064 3
0.49432938444290331 0.6558805363283513 1.1878128840732742 75 255 46 542.592041 499.392059 3
-0.75110876021195683 0.64648672008782615 1.6643044487482408 216 213 255 209.088013 438.912048 3
-0.3678262640512866 0.73804440531619964 2.1960435442862121 111 115 255 321.40802 416.448029 3
-0.72768292238692434 0.75293706951141148 2.0333261102853761 255 103 138 247.104019 428.544037 3
-0.25881358089348838 0.73924984866445387 1.9592422834683276 62 67 255 333.504028 432.000031 3
-0.60005728774919032 0.71399499850969761 2.2007496744546966 206 206 204 276.480042 411.264038 3
-0.69021429116231081 0.79120679555696949 2.6142827221317031 255 165 166 279.936035 402.624023 3
0.16873377416607371 0.19748221494368523 1.5560832493504764 247 251 255 425.088043 335.232025 3
0.082142885492916484 0.23080797090389416 2.0845969008707161 243 247 251 400.896027 331.776031 3
-0.64076737542268036 0.73133744009165502 1.5804705173420812 219 218 255 229.82402 468.288055 3
1.0876264108511673 0.60970796847069619 1.610629168760001 134 147 255 641.088074 430.272034 3
0.71513785432385557 0.59854874127898339 0.9892161770144936 122 153 167 660.096069 520.128052 3
0.0097354811733716407 0.2939006985288426 1.2737418698687488 236 236 243 388.800049 374.976044 3
-0.39055384908496249 0.77550029236798235 1.8050491437241396 175 178 184 300.672028 452.044861 4
-0.76190407443747832 0.77343945710910988 1.5007064425128451 173 255 139 186.624023 487.296082 4
1.3135698986155679 0.43707423031552656 1.9821319172553471 244 255 237 638.668884 371.174438 4
-0.23521391477700737 0.76427976822063126 1.1901895990762323 11 23 32 308.966431 534.988892 4
0.92833245478177584 0.67854388378188324 1.6044568158642099 255 112 135 607.56488 449.971252 4
0.13466201356207641 0.15800310009845719 1.2039492551815885 247 251 255 425.088074 335.923248 4
1.2237486599404281 0.70945543506976882 1.8883143403001519 144 255 104 634.521667 433.382446 4
-0.21820307046468601 0.77913188927795929 2.7601907466317357 110 255 111 354.585663 398.131256 4
0.70861403077936269 0.59325866336029831 0.98129848081241633 255 108 137 659.404907 518.400085 4
0.029829609081158726 0.6325798673889258 1.028476089865741 187 186 178 396.057648 526.694458 4
-0.27554601322551431 0.79466134698617408 2.150072262471113 75 77 255 333.84964 433.382446 4
-0.69442358735431675 0.7911172121114034 2.6706441861433348 122 255 122 282.009644 404.352051 4
-0.47608578661558232 0.6630032849391978 2.2673264850697219 210 255 214 302.745636 398.131256 4
0.0069667261600099284 0.30563906573477362 1.4093352417952545 255 236 235 387.763245 375.321655 4
19.518087261394836 -30.983390220404388 57.781308797290187 168 190 216 516.326477 82.9440155 4
-0.86682453324557596 0.74899242382396469 2.4915587530895706 131 129 134 248.832031 403.10791 5
-0.21337792272768619 0.80686911799031513 2.4435598035080535 255 31 35 355.829803 413.061188 5
-0.62740788664316405 0.70563286300582151 2.2911813150702809 102 105 255 281.180206 403.10791 5
-0.35756846405640053 0.78271340511502174 1.6158668722466434 217 255 221 298.59845 475.269196 5
0.49160924097920566 0.64704572710865893 1.1921216534774404 40 60 78 544.942139 497.664062 5
1.7701430074696991 1.0496853779851882 4.3857727230517938 255 155 172 539.965515 385.689667 5
0.075852716271930687 0.20627654018436536 1.7838749335292103 243 247 251 400.619568 330.946594 5
-0.90397860360762916 0.82214384267109031 2.4269170594079039 208 255 182 238.878754 420.526154 5
-0.27106361883822228 0.78757673752352453 2.0953916577946536 255 65 70 335.923248 432.967743 5
-0.20558447160769111 0.74954593274431103 2.6124054998493147 95 100 100 352.346191 400.121918 6
1.2244446057162848 0.66951542837204137 1.802870194344008 128 141 255 641.986694 429.981781 6
-0.71532705139428643 0.66997503469915554 1.3126204841225473 150 168 255 173.187103 483.729492 6
0.17953293151363092 0.21895608219066554 1.8249865489036994 243 247 251 424.009796 334.430267 6
0.084222613996109974 0.22755655151729592 2.0951661613090433 243 247 251 400.121918 331.444275 6
0.0018865254469475623 0.28064901233114736 1.2738262332633017 237 237 244 388.177979 373.248077 6
1.1660844200768246 0.82038378732462192 2.0053019531202718 147 156 255 609.140869 447.897675 6
-0.57213001041813794 0.61874428079350219 1.1511104697095575 219 218 255 197.074982 492.687439 6
-0.51248239831504439 0.75257786887047429 2.6026352466545539 210 211 210 304.570435 397.135956 6
-0.20381019527583177 0.42679094689673969 1.3732283604864444 46 47 52 328.458313 412.065857 6
-0.29698909781877258 0.83259109881747717 2.1438062710758139 71 78 84 328.458313 441.92572 6
-0.68273736883132052 0.76608984753230347 2.6014506872558734 129 126 128 280.682556 403.10791 6
-0.67102482909923733 0.66297622679208512 2.3671638084269038 147 147 255 277.696564 394.149963 6
27.706704348957935 -28.115880714893748 70.543248088283363 228 255 202 534.491211 134.369308 6
1.1626845975684326 0.63295074125684081 1.5399578616613638 255 146 162 671.846497 444.911713 6
0.18605687193518894 0.37219489403589279 1.2484295656986051 90 86 255 441.92572 406.093903 6
-0.19393765830451537 0.71498737273981305 2.0113728314990098 255 79 85 347.568604 419.232239 7
0.29261706348777805 0.38251828933871102 1.0870647767554873 177 255 141 490.895874 422.81543 7
0.12204165207845019 0.74312683221128606 3.2331946148724295 237 244 255 397.733154 372.650879 7
-0.19930327788563851 0.74913377433925499 2.6043442466772415 255 86 89 351.151794 401.316345 7
0.85872085233036111 0.75907474736797009 2.3978853706509291 255 132 152 523.144531 408.482697 7
0.97715655959319225 0.70045859523773968 1.6442425368585409 147 156 255 609.140869 447.897705 7
-0.36515603230678861 0.76098281301602411 1.5934611790188669 223 220 255 297.404083 476.563141 7
-0.34477449494237078 0.76216519421967277 1.4142714341137879 175 255 177 286.654541 490.895874 7
-0.37876902046548944 0.76168039620172845 1.7788587879791766 176 178 185 300.987244 451.480896 7
0.15415284076545888 0.20591181674368686 1.721324762366935 251 255 243 422.81543 336.819061 7
0.088775591825566158 0.23325782204226342 1.9971230185275157 247 251 255 397.733154 336.819061 7
-0.28468046702098215 0.61509036482003232 2.007449862302968 160 159 255 333.235901 397.733154 7
-0.51248239831504439 0.75257786887047429 2.6026352466545539 210 211 210 304.570435 397.733154 7
-0.73860317856182345 0.62637747754835527 2.1262246291749793 167 255 180 254.405899 394.149963 7
-0.35558253981119403 0.75951463009311704 2.3069474214565808 54 255 46 326.069519 412.065887 7
-0.03249695294913546 0.4229347858932434 1.0691352644354879 102 107 107 372.650879 440.731354 7
-0.50509774449249889 0.92119576556514904 2.4300878344628618 148 157 162 304.570435 440.731354 7
-0.67236292906641104 0.73247295349453534 1.381763611390137 221 219 255 197.074982 490.895874 7
1.2083557114345576 0.62760775865819751 1.9184375143606252 255 100 119 627.056763 408.482697 7
1.1545033408200165 0.40123459959441254 1.7305763675255106 237 244 255 637.806335 372.650879 7
