ply
format ascii 1.0
comment Written with hapPLY (https://github.com/nmwsharp/happly)
element vertex 204
property double x
property double y
property double z
property uchar red
property uchar green
property uchar blue
property float ix
property float iy
property uchar octave
end_header
0.99140038886257476 -0.44597878637681609 2.7141886004344817 255 235 239 523 226 0
-1.0791282342332345 -0.096353931337207904 1.6157702096008055 255 86 112 127 265 0
-0.20338746293696341 0.51194305968358234 0.86358029286633053 58 71 90 292 517 0
-1.0857434770180596 -0.45418136698761546 1.6611712064325053 98 126 255 133 181 0
0.37950977673074604 -0.54102353440188744 4.1264019276577262 168 255 162 418 238 0
-0.71779460284133245 0.39784235060325385 1.7729633348900689 220 255 222 230.400009 373.200012 1
-0.43417999965183629 0.2430088580280545 1.5321850827358441 203 255 187 274.800018 349.200012 1
0.27141092437455994 0.31772867450148629 4.7624413465018716 255 119 138 403.200012 313.200012 1
-0.50505376204224373 0.5750844698655766 4.6372593815465288 255 118 136 343.200012 334.800018 1
-0.65779328580031349 -1.4518398126975178 4.1113821100476429 208 225 255 325.200012 153.600006 1
-0.48720857407871065 0.46889354508372033 0.8227660838089812 108 129 255 157.200012 507.600006 1
2.2892408137225293 -0.059985692803668084 2.8184278090057324 149 176 255 693.600037 279.600006 1
0.020751383322377359 0.00080555153958680736 5.8867960246491364 139 255 96 386.400024 285.600006 1
0.65206779929383174 -0.62681396453375715 3.5494580443516801 196 203 255 453.600006 219.600006 1
-1.3793542650082062 -0.033150329234229892 3.047578798021676 203 205 255 213.12001 283.680023 2
1.3178229791016043 -0.2885303440779069 2.3433844991178425 119 154 182 600.480042 240.480011 2
0.42920043194931812 0.43909059597341671 0.82170582197506548 160 255 123 586.080017 492.480011 2
0.042311695558564288 0.52721177843080969 1.2608345069986244 191 206 206 400.320007 447.840027 2
-0.35331679742886957 0.41260034115895905 1.8315122883299875 255 136 139 311.040009 374.400024 2
-0.51888756195429675 -0.9753286958628915 4.0721037054636771 255 91 115 335.52002 195.840012 2
-1.0799977775763505 0.32446550669259189 1.5306239382790925 53 28 255 113.760002 370.080017 2
1.090303753877331 0.42692053160875609 2.2449866717501186 255 103 117 571.679993 362.880005 2
-1.2235954469810411 -0.51280883499018159 1.5357928707454738 255 236 237 79.2000046 161.279999 2
-1.0794592672921555 -0.44869966939485528 1.6394710041731244 255 84 103 131.040009 182.880005 2
-1.2638620591934138 -0.1886389157415968 1.6117847231113727 245 255 241 82.0800018 243.360016 2
-1.7789621478100091 -0.58122773947379536 3.6089012856320437 224 226 226 192.960007 228.960007 2
-0.95442313184981442 -1.9429467087812391 4.2170053764288022 218 255 166 298.080017 109.440002 2
-0.97789017376620446 -0.62246341580203834 1.4784025654152866 91 118 255 129.600006 126.720001 2
-1.1199997423065344 -0.69595793967394848 1.603454404969451 255 68 92 115.200005 120.960007 2
1.3431372645939992 -0.090197246745601145 2.2821408895514423 122 147 181 612 273.600006 2
2.3371480238791467 -0.055265094991489239 2.8975253023674874 77 146 173 692.640015 279.360016 2
0.1898751243992296 0.52396882164660885 1.246570979763201 216 255 220 442.080017 449.280029 2
0.33845611425029176 0.46532016955290872 1.345196150071307 173 255 146 482.400024 419.040009 2
1.929494154820778 0.19039265945579198 2.3834282006247465 74 143 168 692.92804 316.22403 3
-1.0915725498831748 0.32764793457681668 1.5409431033504766 48 255 48 114.048012 369.792023 3
-1.0199912221923224 0.46711976474572398 1.8072272962849452 255 34 38 167.616013 387.072021 3
-0.40535616210664083 -0.33631607237154626 1.7975294695112662 234 241 255 297.216034 214.272018 3
1.3300065915487413 0.095211110327225429 2.2033396025869747 255 113 137 615.16803 305.856018 3
-0.7517066191050783 0.19151709019044544 1.9584365949708262 255 114 118 235.008026 323.136017 3
-1.0331508378852745 0.20334940619987429 2.4111182914940397 255 186 190 219.456024 321.40802 3
-0.20208080007071905 0.55325589774330386 1.666391167218654 233 234 235 336.960022 412.992035 3
1.0831181803372563 0.42889011102461522 2.2328379134707621 173 255 134 570.240051 361.152039 3
-0.58698813904106872 -0.071475955135310826 1.6289908814282894 255 179 183 247.104019 269.568024 3
-0.42414052395095947 -0.23978585257121676 1.8585484564474415 239 245 255 297.216034 240.192017 3
-1.0200793165102784 -0.27263100351617015 1.5401604293183229 92 119 255 129.600006 219.456024 3
-1.0242232237731317 -0.42547859844644476 1.5389690791415447 104 130 255 129.600006 181.440018 3
-1.2541395939961477 -0.029942293699976752 1.5730239775054899 245 246 255 77.7600098 279.936035 3
-1.2366515331971097 -0.17956655172163033 1.5792823119518364 244 255 241 82.9440079 241.920029 3
-1.0643353308606773 -0.18278650294923271 1.5794723676876683 85 255 48 122.688011 243.648026 3
-1.2403844404121438 -0.82089582561925689 1.5538941879454549 207 221 255 77.7600098 86.4000092 3
-1.2378077055934278 -0.96997077576585999 1.5807640102303804 206 255 149 82.9440079 51.840004 3
-1.0558834651383888 -0.91223250545233547 1.5532652784461547 62 74 98 124.416016 65.6640091 3
-1.0568407821468355 -0.97803232468035772 1.5956243142436555 83 110 255 129.600006 51.840004 3
-1.020798681282244 -0.58331496234721369 1.5393451344614513 255 64 90 127.872009 143.424011 3
2.3890996656351726 -0.068985756413397242 2.9729163078969529 77 146 173 692.92804 279.936035 3
1.0195589907832956 -0.59842303698427513 3.1913273425943736 243 255 234 506.304047 219.456024 3
0.007941143503545911 -0.024852407555809225 5.7435988992248426 255 96 119 387.072021 285.120026 3
1.072995096654636 -0.38258664602079362 2.7803116561020333 238 241 245 532.22406 231.552017 3
0.83451345892947626 -0.35394172200376184 3.1013366431731484 243 245 255 485.568054 245.376022 3
-1.1386117763102055 0.033887066068890498 1.6515646720729196 255 99 119 115.776009 295.488037 3
-1.0727767991183388 0.42385115611679203 2.0007922154344815 49 58 51 176.256012 369.792023 3
0.5582174474312962 0.53951075642469981 0.90555573670851164 124 138 163 620.352051 518.400024 3
1.2966414551403416 0.10360800253868335 2.1416064847174763 255 110 134 615.859314 304.819244 4
1.0964042720417897 0.43328219001798368 2.2611454927828323 103 118 141 572.31366 362.880066 4
-1.0620386827872959 0.35618173991929525 1.9440965083174051 24 32 13 172.108826 360.806458 4
-0.5056763101257884 0.42039439289667846 1.3900068016301299 189 192 195 248.832031 402.278442 4
-1.0007218562902018 0.17719373878580735 1.9688913833169188 140 255 129 186.624023 321.408051 4
-0.19212993691934388 0.53155207054771458 1.5993914707328294 234 235 255 337.996857 412.646454 4
-0.21435730085413107 0.5039167890414411 2.3587733620017399 43 70 96 352.512054 373.248047 4
-0.29071033505082866 0.35036267511417152 1.867543666712157 93 100 255 325.555237 360.806458 4
-1.0147277574594682 0.47618280016214498 1.5369506852052828 9 255 13 130.636826 406.425659 4
-0.33980754255129408 0.43273715254855938 1.5053050476660621 188 255 170 294.451233 398.131256 4
3.1615207201934528 -0.043845369816558288 3.8054826136651627 143 178 255 705.024109 288.230438 4
-0.52415219309645433 -0.094187963239187072 1.6676925713983004 255 106 116 263.347229 265.420837 4
-1.0313119521114835 -0.28196404897333788 1.5295784508540433 75 94 120 128.563217 219.801636 4
-1.0485384130160895 -0.42641766653119184 1.5458240752793917 86 105 131 128.563217 182.476822 4
-1.1984296003909169 -0.17758396320704373 1.5240532765155161 241 242 244 80.8704147 242.611237 4
-0.86237222081152431 -1.7334964549384138 3.7134065571118393 219 255 166 294.451233 109.900818 4
-1.0214544471017799 -0.81189547770965886 1.5272436120340198 115 255 68 130.636826 87.0912094 4
-1.0974609300319722 -0.98324199836088644 1.6184258082062386 48 62 87 124.416016 53.9136086 4
-1.0201732918937743 -0.57833170533300438 1.5315018119570811 110 255 53 126.489616 145.152023 4
-1.0318572834945305 -0.65386156392686723 1.5254917929551608 123 255 76 126.489616 126.489616 4
1.3684052588494018 -0.09260214029824726 2.3747809739030119 143 181 255 609.638489 273.71524 4
0.69368854019015203 -0.7092866818151381 4.0544539439538561 149 175 187 452.044861 219.801636 4
0.79357508458691128 -0.54626825572847504 3.1131122924680428 239 244 255 481.075256 223.948837 4
0.0031776204583806589 -0.0035702779975850252 6.4164284620831662 119 139 255 385.689667 286.15683 4
-1.0404397025920904 0.46018031717387481 1.2940874884486417 224 255 224 70.5024109 423.014465 4
-0.46698089528758846 0.25539494620804026 1.6444008637307772 255 207 208 275.788849 346.29126 4
-1.0682285039913006 0.21531957380596234 2.4690290077533943 204 205 255 217.728027 323.481659 4
-0.37746921156895574 0.26828356651819618 1.7884094717251862 74 60 76 304.819244 344.217651 4
-1.1015207962318412 0.14624475588364166 1.6302686292940272 89 105 122 128.563217 321.408051 4
-1.1440185048660112 0.44271842723267185 1.4218042537884306 168 255 143 74.6496124 404.352051 4
-1.0351700461363267 0.39406007293864925 1.6201613582487844 15 255 35 138.931213 383.616058 4
0.32792861016630614 0.45531544561612092 1.3147899615435157 150 173 255 481.075256 418.867249 4
1.1848243083252883 0.50915544807862168 2.0337576342161894 101 108 255 609.638489 387.763245 4
-1.2138468127416986 -0.58813522760072656 1.5367759566077797 236 255 229 78.796814 143.078415 4
-0.28176854305033761 0.34293913484922328 1.4932043390755165 170 181 255 313.528351 373.248047 5
-1.1639201963270418 0.3393975929192346 2.346200902724803 137 148 255 189.11235 345.876526 5
-1.0820874380480134 -0.22786155137111358 1.5933568619887155 61 90 255 121.927696 233.902115 5
-1.2436538077899755 -0.22951905945519846 1.5907471353989213 240 241 244 84.60289 231.413788 5
0.13494370179613746 0.37694943253293622 1.966761808269891 101 255 61 410.572845 355.829803 5
-0.96377410718128953 0.38086847212177694 1.5060981298949199 255 41 47 139.345947 383.201324 5
0.62994341012945809 -0.59300095069854009 3.3812588254556362 148 174 186 452.874298 221.46051 5
-0.91858229324124352 0.43581267189465145 1.0906802277552754 228 255 230 62.2080078 440.432709 5
-0.50502512651652864 -0.75888978688277986 1.9532689684566522 206 226 255 281.180206 139.345947 5
-0.56450075541770595 -0.54325703655163737 1.6674591748998218 214 221 229 248.832031 161.740829 5
-0.94253598286191353 -1.9018654848458718 4.1532606586709573 218 255 166 298.59845 109.486099 5
0.8260223392462035 0.54917586661339246 1.0468294430078857 132 255 91 686.776428 490.199097 5
1.0417885077955669 -0.48015266580028504 2.9578734788193586 243 255 234 522.547302 223.948837 5
0.74192730423326592 -0.48871405307953619 2.8866550977264067 235 239 244 480.245819 223.948837 5
1.0193909492378432 0.55257856045803799 1.1896484023736469 82 69 88 716.63623 465.315918 5
-0.98191385986172364 0.19775417160451725 2.2814861879883441 192 255 199 218.972198 320.993317 5
-0.6875493141828164 -1.5074002977415744 4.2092877090341441 191 210 228 320.993317 151.787537 5
-0.61320891023634916 -1.9462500225573161 4.4267969403241505 195 220 255 333.434937 119.439377 5
-1.2731532092363245 -0.8410222495232893 1.623227615970221 255 199 208 79.6262512 87.0912094 5
-1.2370662937386778 -0.96927149627718956 1.5693691009638484 147 174 205 84.60289 52.2547264 5
-0.60653487516537652 -0.065444447269751155 1.6657238015040523 194 255 217 246.343719 268.738586 5
-0.39351248344061496 -0.22751754792388168 1.6906796271105637 235 239 244 296.110107 236.390427 5
-1.0200721440283935 -0.57914036592367735 1.5032180470243195 87 116 255 121.927696 144.322586 5
-1.0833211003170344 -0.15867619281203277 1.3658947555489918 245 255 241 82.1145706 243.855392 5
0.31352876722531153 0.32562721937886041 0.84428125136346832 110 129 255 525.035583 432.967743 5
1.0436200616725482 -0.37811085891919527 2.642407218767076 236 239 245 532.500549 228.925476 5
-1.4489678314799503 -0.12561625363918522 3.161288462713201 221 221 222 204.042267 268.738586 5
-0.91565344231120704 -0.0016892224763080943 1.5018387578115373 255 74 96 151.787537 286.15683 5
1.2063222968609186 0.26571954597684866 2.1215222958003963 137 255 112 602.173523 335.923248 5
-1.0762124809556832 0.024570522668364958 1.6905146114437759 255 85 105 139.345947 293.621796 5
-0.40289825167844207 0.2759096627506516 1.9221151721009209 255 62 50 303.575073 343.388214 5
0.15265187932003133 0.53289302938458827 1.3089767907412653 255 201 212 427.991089 447.897675 5
-1.3124053244293172 0.39499156466631014 1.6373608387229455 156 255 202 74.6496124 378.224701 5
-1.6678020469617798 1.3395460184385488 4.7255286344046263 142 150 164 248.832031 400.619568 5
0.93532247924120393 0.57871936711834993 2.0489693498984867 115 255 80 554.895447 398.131256 5
1.8308904021191557 0.15659070878794176 2.2408379661998952 171 255 77 694.241394 316.016693 5
1.0783014355458538 0.52930008617298108 1.9878967499976143 255 46 53 587.243591 390.66629 5
1.065654200353114 0.41337599732089064 2.1638557889382977 144 158 178 572.31366 360.806458 5
-1.0382590773385245 0.33881609032580529 1.714877703263924 255 33 50 151.787537 365.783081 5
2.4244671860292764 -0.069876928515324205 3.0191432977864405 178 255 83 694.241394 278.691895 5
1.1774035076682599 -0.45553405743336994 2.2205665236315033 255 226 233 591.224915 209.018921 6
1.2110697976799036 -0.69341731733263412 2.5360558577834036 255 213 224 567.337097 179.159073 6
-0.014676624935047844 0.012302033643864896 5.9694468820641795 119 139 255 385.192017 286.65451 6
-0.75909328626045713 0.4211018946239114 1.0770150217282173 153 167 184 116.4534 435.953735 6
0.66366274027404382 -0.66909160400173517 3.8092827375026213 167 255 75 450.883667 220.96286 6
-0.43736056478975049 0.23246895481824045 1.5122213953983983 255 213 214 271.724609 346.374207 6
-1.0846165836860315 -0.75382021360702345 1.6021094897732477 90 117 255 125.411354 107.495445 6
-1.060244721741415 -0.96742946781567207 1.5768008065687127 60 85 255 125.411354 56.7337074 6
0.54566162083663916 0.52970015320684782 0.89521622427322622 163 255 123 618.098816 516.575317 6
-0.22938761415985454 0.55102606831177148 0.95217075218389668 77 98 255 289.640503 516.575317 6
0.73984050489088493 -0.49545787453518297 2.8550168830345743 239 244 255 477.757538 223.948837 6
0.91214846090750012 -0.44765296444165803 3.5182739694439897 246 255 241 486.715485 241.864746 6
-0.57378165221572175 -0.47013599732454814 1.6941812495746129 239 255 231 250.822708 179.159073 6
0.82574634638022293 0.55237974376889876 1.0421258220353491 131 255 92 686.776428 492.687439 6
-0.56150098496472278 -0.075590524694833489 1.5480328661125222 219 220 221 244.850739 268.738617 6
-0.81875523968516939 -1.6800509065660079 3.6278880894269872 219 255 166 298.59845 110.48143 6
-1.0726922758257418 -0.11523276282782888 1.57516946145225 115 255 73 122.425369 259.78067 6
-1.0708130151490414 -0.18358242447172451 1.5743105650297253 88 255 53 122.425369 241.864746 6
-0.62787879436120964 0.5870966678687416 1.0652468995207727 255 81 112 155.271194 504.631378 6
-0.7736093572787448 0.11329571348017634 1.6910328482161217 162 172 255 209.018921 316.514374 6
1.4343929910744435 -0.42740369072272077 2.7882997912880034 126 156 184 588.238953 229.920807 6
-0.63652994363728332 -1.4175802058372677 3.9416681163576293 255 192 211 319.500336 152.285217 6
-0.61628481634689569 -1.9811749374523528 4.5092944660369474 255 170 196 331.444275 119.439384 6
-0.28132165482303595 0.20206948503083769 2.905250477372566 139 255 96 346.374207 313.528381 6
0.23740324254413547 0.25302054519194911 3.8984509183503047 179 255 151 406.093903 310.542389 6
-1.0465630285507803 0.40955890099680936 1.3026724255920672 169 255 144 74.6496124 403.10791 6
-1.1429719473172639 0.32757733212136619 1.6222439404303564 80 255 69 110.48143 367.276093 6
-0.71038534207762938 0.37115302616187762 1.7160168864598515 217 255 220 226.93483 370.262085 6
-0.20772589537639474 0.52015286950571404 1.6875325847002864 196 211 255 337.41626 409.079895 6
2.3911487779170617 0.23753011615355607 3.2803102427849273 255 63 131 659.902588 316.514374 6
-0.33240167671686116 0.43568314225170701 1.5482051905171388 154 172 255 301.584442 397.135956 6
-0.29297835386028481 0.35614721686047235 1.5759165198707961 170 181 255 313.528381 373.248077 6
-0.58110971067502515 0.41831973602128147 1.3344504297928248 209 209 255 217.976868 409.079895 6
-1.0224763189568558 -0.64402735292767144 1.5032399394701463 122 255 70 122.425369 125.411354 6
-1.2776000631910169 -0.39149327776491671 2.5871379078691588 255 223 225 191.103012 226.93483 6
1.4146663244553348 -0.55219104091329796 2.7779408757964799 255 227 234 587.641785 211.407715 7
1.195212468568172 -0.69132887299457291 2.4986354398452431 235 255 214 566.1427 179.159088 7
-0.43440450583308454 0.49948654355230859 1.6896665475986405 217 255 226 286.654541 404.899536 7
-0.84177424772358789 0.211683736017343 2.2133987102431414 101 106 121 240.073166 318.903168 7
-1.0931191235415501 -0.22697529837674668 1.6066178051513642 66 95 255 121.828178 232.906799 7
0.40317032949307485 0.41764664082658742 0.75595732188775466 255 126 140 587.641785 498.062256 7
-0.19442678872387376 0.51219680068736095 1.6206269152059911 151 164 181 336.819061 408.482697 7
-0.62278272460612882 -0.075648441152744605 1.6829675955207573 255 221 221 243.656357 268.738617 7
-0.3613581099229406 -0.30607785954657468 1.6172016301112695 234 241 255 293.820892 214.990891 7
-0.54728916713457521 -0.45125427280885655 1.6425422441629771 239 255 231 250.822708 179.159088 7
-0.77919285954162909 0.44170509522992574 1.1174931606891638 182 255 148 114.661812 437.148163 7
1.47263019516675 0.54448225477303414 2.1610144495620043 137 151 164 648.555847 383.400421 7
1.3740948746062371 -0.071886433090414037 2.3893843705628095 148 181 255 609.140869 279.488159 7
-0.36686628853589465 0.23016355974261565 1.6964721277131138 70 61 75 304.570435 343.985443 7
-0.66954462131583803 -1.4458111224895078 4.0115693451269197 228 255 191 318.903168 150.493622 7
-0.56667049079000709 -1.8384698448507042 4.1708903063742779 197 221 255 329.65271 121.828178 7
0.26008581949835263 0.28147145621945741 4.2507964862971868 137 152 169 404.899536 308.153625 7
1.1883331789711056 0.25667270253261143 2.0970494415772585 131 152 255 601.974487 333.235901 7
-0.32321089198176223 0.37431602219298105 1.6860782770013647 255 131 133 311.736786 372.650879 7
-1.0190710027877681 0.21450758047972684 2.3249029692116254 188 255 170 214.990891 322.486359 7
-1.0085831589112852 0.20868264979070686 2.2830015147870881 255 169 167 211.407715 315.319977 7
-1.2147141220543749 -0.0035306298825336091 1.9559758885801273 255 83 104 139.74408 290.237701 7
-0.9725604257137741 0.41012463994964288 1.7012317303226037 29 36 13 168.409531 383.400421 7
1.1867560337662022 0.47569621263021006 2.1017953632833173 95 95 255 605.557678 376.23407 7
1.0109806887937318 0.40096741893871118 2.0767606628994155 152 176 255 569.725891 361.901337 7
0.021178215522320576 0.39045877490479464 2.4784478975943234 95 255 49 386.983612 347.568604 7
-0.23473525650858185 0.53015050753081572 0.95546031610445814 156 255 114 290.237701 501.645416 7
0.0030187165210628919 -0.0083712191347316833 5.9882153625627694 255 95 118 383.400421 286.654541 7
2.3361670644919244 -0.066900013290444121 2.9090987755608966 255 75 143 691.554077 279.488159 7
-1.2828576128550542 -0.85909427873219579 1.6381067682572126 220 255 197 78.8299942 85.9963608 7
-0.67857143758273031 -1.3701399144336701 2.9670191581770933 193 219 255 297.404083 111.078629 7
-1.3870527267287414 -0.44293274103097957 2.8254136976300774 226 226 255 193.491806 229.323624 7
-0.72125975379888807 -1.0977949154291915 4.6960994147893 239 255 232 322.486359 200.658173 7
