ply
format ascii 1.0
comment Written with hapPLY (https://github.com/nmwsharp/happly)
element vertex 151
property double x
property double y
property double z
property uchar red
property uchar green
property uchar blue
property float ix
property float iy
property uchar octave
end_header
0.20928636009768931 0.31759210340096189 4.9008625941675756 104 125 145 400 313 0
0.42208962581024712 -0.64899832727791185 4.5851771641754606 114 124 255 421 233 0
-1.247013627405424 -1.0284330372709463 1.6583823152606922 147 174 206 96 51.6000023 1
-1.2553921354911179 -1.1050156032730198 1.6749164471959634 142 169 202 96 33.6000023 1
1.0472067182153029 0.41126603769146886 2.3397661683180297 255 117 123 555.600037 356.400024 1
-1.1314463436098556 -0.36403411592291163 2.4080980708684301 223 223 255 205.200012 229.200012 1
-1.0461876399751406 -0.58616135300788663 1.6772669500206017 123 255 68 146.400009 153.600006 1
-0.97743969288435117 -1.9586514343349917 4.3778727708774374 196 221 255 297.600006 115.200005 1
-1.2368031310140521 -0.72685832394968564 1.6515841302570395 213 226 255 97.2000046 120.000008 1
-0.23903092405193083 0.46540231383654307 1.7394448763552073 255 153 164 331.200012 391.200012 1
-1.4222333720993192 0.15453738333127609 1.8696827831249436 119 255 201 90.7200012 322.559998 2
-1.4075218667789069 -0.04280180476459472 3.2081839531013134 172 255 148 214.560013 285.120026 2
-1.1685060475168028 0.026439357093504312 1.8031467091617417 255 92 110 135.360001 293.76001 2
0.96539193431909298 -0.45391184261026263 2.9110441875114397 255 236 239 511.200012 228.960007 2
0.97331174064850579 -0.5271546661718034 3.3205276426308581 234 238 243 496.800018 224.640015 2
0.50624380266409208 0.50644870894081118 0.99462072519441502 142 255 98 578.880005 483.840027 2
-1.2365505985846013 -0.26365365594316509 1.9696915336751895 70 97 255 141.12001 237.600006 2
-1.2786561341640299 -0.036929429040164247 1.7166239170183002 245 247 255 97.9200058 279.360016 2
1.0392411803881825 0.41165480031805024 2.3257396348284303 162 255 161 554.400024 355.680023 2
-1.0555322676954897 0.19418160080580898 2.5536111710132525 181 255 163 226.080002 319.680023 2
-1.0982233774555832 0.41558694229452564 2.148978656621372 34 13 255 185.76001 362.880005 2
-1.2502855762582636 -0.51810231172144716 1.6804381945084503 237 240 255 97.9200058 169.920013 2
-0.69810435856222952 -1.4838101194338469 4.3324412831793211 195 213 230 324 154.080002 2
-1.207383449469956 -0.56897674842094115 1.6126783302066956 255 230 233 99.3600006 154.080002 2
1.2728521094108505 -0.098704350628528781 2.3282864129906518 149 177 255 593.280029 273.600006 2
-0.93326991050078556 0.40702533673848762 1.4816483313877149 13 15 11 144 393.120026 2
0.25368977223053291 0.30849595930597429 5.0395087252552955 104 124 145 400.320007 312.480011 2
-0.40977925421494543 -0.61455257377932015 1.6445035000715986 189 210 228 288 146.880005 2
-1.0738733996334693 -0.74413004760893564 1.7114341255349292 98 124 255 141.696014 120.960014 3
-0.43965882333580542 -0.34655317795645085 1.9539819756215469 255 228 235 295.488037 217.728027 3
-1.1264343738177494 0.31824164102733843 1.6972195567607922 255 103 115 127.872009 359.424042 3
-1.0866948920202937 0.20722660823819772 2.6029273454497668 168 170 177 224.640015 319.680023 3
-1.461582816051946 0.13420672247380966 3.267567094827867 150 255 119 214.272018 304.128021 3
-0.57048464265113008 -0.46426509457638565 1.7621699364839269 255 228 229 255.744019 186.624023 3
-1.0824644076198657 -0.18758356434311152 1.7087478837564589 255 59 67 139.968018 245.376022 3
-1.0890368435297169 -0.92135311702480882 1.7075276942965427 95 255 60 138.240021 81.216011 3
-1.2855405828500013 -0.83743708264755778 1.7309393715403201 227 255 214 98.4960098 101.952011 3
-1.067307739224582 -0.66337998925504826 1.6843773309110994 88 114 255 141.696014 138.240021 3
0.44085635856386096 -0.66088416201427225 4.1392824541561053 255 112 128 423.360046 226.368027 3
-0.47532262446225371 0.42154854093163846 1.7264388879373387 83 94 113 276.480042 381.888031 3
-0.22353378488783449 0.52597599949397711 1.7614336214954078 255 234 235 335.232025 400.896027 3
-1.1422212351943379 0.33544791037146499 1.9529624365175682 114 128 255 157.248016 352.512024 3
0.52374821109930547 0.5298507899146998 1.0428561222348103 107 130 255 577.152039 482.112061 3
-1.4763688551208083 -0.13547797008448664 3.3215643816852607 216 216 255 209.433624 269.568024 4
1.0894482108439658 0.42864475394086599 2.4748771541591372 255 148 155 555.724854 354.585663 4
-0.25318478713206849 -0.016697727510629479 3.3189288564431232 99 120 141 356.659241 288.230438 4
1.3013486275331565 -0.10080123167474955 2.4256331717098716 149 177 255 593.049683 273.71524 4
-0.99863419384584962 0.37579747623563498 1.6700673037469365 22 13 255 153.446426 373.248047 4
1.2317033861039537 0.089128073534882973 2.201725124791273 152 173 255 597.196899 302.745636 4
-1.0866948920202937 0.20722660823819772 2.6029273454497668 255 173 174 223.948837 319.334442 4
-0.37215092638402636 0.42636290170360724 1.6629398928460275 66 75 90 300.672028 383.616058 4
-0.38058844474185038 -0.31624404676654877 1.7400154573682731 228 235 242 296.524841 217.728027 4
-1.270635863568045 -0.52740601806194842 1.7290346806358543 237 240 255 97.4592133 170.035217 4
-1.0293014706800934 -0.50350872795062762 1.627493699990235 255 74 95 143.078415 172.108826 4
-1.3183234196406346 -0.19405021236805986 1.81839395840773 243 245 255 101.606415 244.68483 4
-1.1204304882702272 -0.1247359589565884 1.765456296791724 110 255 73 138.931213 259.200043 4
-1.086897171256858 -0.18747629690336265 1.6992378207714274 84 255 56 138.931213 244.68483 4
-0.96832373162547425 -1.919772899834526 4.3186605688641544 220 255 169 294.451233 116.121613 4
-0.64040854007257009 -1.9706241840981171 4.6099262848679574 255 172 198 331.776062 122.342415 4
-1.2659982974623851 -0.97620294406788677 1.7266012456542015 255 151 180 103.680016 70.5024109 4
-1.0939888773090454 -0.98850164173531896 1.7551597783100616 255 41 51 143.078415 70.5024109 4
-0.0016639169040801871 -0.014979947101950969 6.5057188215483421 255 98 120 383.616058 286.15683 4
-1.0509770752704628 0.38096895789449936 1.3795160243975437 192 192 255 93.3120117 389.836853 4
0.28205728534703334 0.51188230532206536 0.92565125814750182 255 218 219 499.737671 501.811279 4
-1.2880795015893991 -0.61316628297133247 1.7616778524648238 255 230 233 99.532814 153.446426 4
-1.1944650646979111 0.33165732427844014 2.5065817557250902 255 85 97 199.065628 340.899902 5
-1.0923726054320961 0.34853117808130302 2.0994066489032406 35 13 255 189.11235 348.364838 5
-0.23842747546682963 0.46686967441948768 1.7254442080294932 165 171 181 328.458282 390.66629 5
-1.0969310367242513 -0.97774468456981611 1.7354021636030943 255 49 60 139.345947 69.6729736 5
-0.94052780016043602 0.42402036252851383 1.2266432942038645 232 232 231 92.0678558 420.526154 5
-0.30693584439319421 -0.018488610153667429 3.7550386843814785 255 99 120 355.829803 286.15683 5
-1.2659982974623851 -0.97620294406788677 1.7266012456542015 210 255 150 102.021133 69.6729736 5
-1.0512169125515096 -0.5868018927753641 1.6542142025586051 53 78 106 144.322586 154.275864 5
-1.0479548397104881 -0.81706417324438341 1.668669075740679 73 95 120 144.322586 102.021133 5
1.186063489305027 -0.70544683831454469 2.6875603659168741 227 236 255 557.383789 186.624023 5
0.55340564049391006 0.56082451295852753 1.0954165605933945 118 140 255 577.290344 480.245819 5
-0.86739944461807594 -1.7260281511055293 3.8056960860085942 221 255 170 298.59845 116.951057 5
-0.65196531626814158 -2.019206442567103 4.7334909840375037 222 255 172 330.946594 121.927696 5
-0.80691763957064699 0.43226450145409839 1.2611083593992247 255 150 163 139.345947 415.5495 5
1.0377387686537132 -0.56586226453222099 2.5888197874638976 239 255 223 542.453857 204.042267 5
-1.2913531493379748 -0.42235370359582147 2.72659929146322 220 222 222 204.042267 228.925476 5
-0.63715903041795219 -0.072484868125850005 1.8177345364212569 255 225 226 251.320358 268.738586 5
-0.43672196470532487 -0.23971238654090243 1.8843890080564045 235 239 244 296.110107 238.878754 5
0.36905007381109933 0.40247934201800317 0.89111492156694627 169 255 137 542.453857 457.850952 5
-1.0446378502519176 0.51773289218311436 2.5957920115967372 255 159 162 231.413788 363.294769 5
0.82337589751356288 0.53241270848250022 0.97563579693412761 255 109 125 711.659607 497.664062 5
1.22053811118115 0.51954332997453379 2.0973249044183833 35 49 255 609.638489 383.201324 5
1.1871815198820248 0.25799932304802969 2.2932637012253849 113 130 150 584.75531 330.946594 5
-1.1723304084666859 0.32003449952207008 1.7746019039495344 105 114 255 129.392654 358.318115 5
-1.1620795791313268 0.32482703691138798 1.7539368490192335 96 110 118 128.397339 358.318146 6
-1.1152623796968255 0.46629395533929774 1.95713566509062 255 47 49 167.215134 376.23407 6
-1.2879980241553581 -0.99593033372251405 1.7758222739090601 179 209 255 101.523476 68.6776428 6
-1.2333788602828761 -0.73252891956826982 1.6657627330963294 226 255 205 98.5374908 119.439384 6
-0.28754955000453442 0.00045874200501028195 3.7994591357084726 255 99 120 355.332153 286.65451 6
0.33354395665287906 -0.52615067183485142 4.3302340610589809 139 152 158 412.065857 241.864746 6
0.63870109969457278 -0.67608089750875644 3.9158293626422473 65 117 143 444.911713 223.948837 6
0.44143467045530072 -0.66204528263069062 4.0961108065491487 123 142 158 424.009796 226.93483 6
0.75324322588458459 0.56348534443796094 1.2664754090127488 120 133 155 612.126831 462.827606 6
-1.1270749717039537 -0.96069817440592975 1.7404413802608829 49 75 255 137.355286 71.6636276 6
-0.01529536258291242 0.54236972800294458 1.517783976878385 255 214 222 379.220032 429.981781 6
-0.3919332775588904 -0.31420539795526325 1.7616275330330757 255 228 235 295.612457 217.976868 6
0.96616004315490422 0.53005819869478998 1.2934763066802675 130 148 255 665.874573 444.911713 6
-0.63135909912232568 -1.4011356972721618 3.9899553202198721 255 197 213 319.500336 155.271194 6
-0.63507695769641659 -1.992538416805909 4.6449571649733672 255 172 198 331.444275 122.425369 6
-1.3025399070647947 -0.40006167457694275 2.7372268812155758 255 219 220 203.046951 229.920807 6
-1.11700266554057 -0.23560545566315894 1.7480223498874894 75 101 255 137.355286 235.892776 6
1.3223583114053739 -0.083134170301386229 2.4732983519593406 255 94 126 591.224915 280.682556 6
-1.0402107334049577 0.20662804632411624 2.4629476334992386 164 165 174 220.96286 319.500336 6
-1.2406888510525036 -0.004862087005630622 2.1066804953915046 93 111 133 152.285217 289.640503 6
0.21776992713455545 0.23754751520966846 3.9812584419581052 255 121 139 403.10791 310.542389 6
0.38731867301429346 0.42645504977341175 0.95719833942540289 255 131 144 543.449219 459.841614 6
-0.56293702361795939 -0.10537432740710215 1.8294938879506701 117 137 255 265.752625 265.752625 6
-0.63715903041795219 -0.072484868125850005 1.8177345364212569 227 255 226 250.822708 268.738617 6
1.2160437239405377 0.14451373005735743 2.0048033217293142 130 155 255 621.084778 316.514374 6
-0.46219635987980645 0.48930227105065804 1.8322188542436786 233 234 255 289.640503 391.163971 6
0.1194795406264082 0.53805769740314469 1.5276913413878717 215 255 202 418.037842 426.995789 6
1.2797619782840477 0.43667719507498404 2.16332177097296 56 66 255 609.140869 367.276093 6
1.1652163847509447 0.4690033110430224 2.2722091921897958 38 46 255 585.252991 367.276093 6
0.12016662399031053 0.36150280146555958 1.3380693884563666 221 255 224 418.037842 388.177979 6
-0.23850598975160309 0.51403262124459648 1.8436368128232759 214 255 193 334.430267 397.135956 6
-0.35608915322606549 0.36731252723593794 1.8475571756191451 122 138 255 313.528381 364.290131 6
-0.95065306680250306 0.40974815411465071 1.4863753045790848 255 7 9 143.327255 391.163971 6
1.3849661434934468 -0.55674390063066048 2.8979437014829168 234 241 255 573.309021 212.004898 6
-0.71492702035454725 -1.0931445316696538 4.7425361442623988 241 255 231 318.903168 204.241348 7
0.33354395665287906 -0.52615067183485142 4.3302340610589809 141 154 157 412.065887 243.656357 7
0.79219850531952618 0.52574473360809693 0.98613908220950197 255 110 128 695.137207 494.479065 7
0.78118201845182911 0.53251795676826619 1.1591792553380591 124 146 255 637.806335 465.813599 7
-1.0341925630068043 0.16508739336767098 2.9089144970901284 255 139 143 243.656357 315.319977 7
0.62989159172386366 -0.67559144062014664 3.9521066927875523 78 125 151 444.314514 229.323624 7
-0.27037462125309153 0.52523475636475214 1.1089817973103773 146 255 90 290.237701 472.97998 7
-1.2961766798992533 0.19521994384437924 1.6519943266115775 119 131 255 85.9963608 340.402252 7
-0.6886909322726531 -1.4562027302583334 4.1542738341073546 230 255 196 318.903168 154.076813 7
-0.58597485919908054 -1.8500262373441465 4.3146386806223616 200 223 255 329.65271 125.411354 7
1.1712114796978013 -0.70919930826251165 2.672473329670277 255 222 229 551.809998 182.742264 7
-0.39180392078335302 -0.44462638151064415 1.7128969717086218 233 239 255 293.820892 189.90863 7
-0.57828529269524998 -0.4596155639005306 1.7936970519457516 227 228 255 257.989075 189.90863 7
1.0385645257128477 -0.57630201465974329 2.6375293571813261 232 239 255 533.894043 204.241348 7
0.93275382560164211 -0.50203112110126935 3.1038966624712945 244 255 235 498.062256 225.740448 7
1.0538280693393376 -0.12538934540017777 2.623359633390856 248 249 255 533.894043 268.738617 7
-1.3142725283943717 -0.18072601670516047 2.971339011446446 255 224 225 211.407715 265.155426 7
-1.3809514162123677 -0.44633748170559717 2.9171153927796132 178 185 192 200.658173 232.906799 7
-0.64935302487290514 -0.081568502635383622 1.8262352917258311 227 255 226 250.822708 268.738617 7
-0.35640827888255178 0.4265084955536016 1.6649478604204795 66 75 90 300.987244 383.400421 7
4.7852871737854219 0.48931137384385587 8.6128772995900569 143 166 255 605.557678 308.153625 7
-1.0726994686852698 0.10697698622065188 2.4005154223666416 255 122 127 211.407715 304.570435 7
0.82505074446954885 0.39295554783008024 2.1664569706256707 61 255 46 530.310852 361.901337 7
-0.22130825807627907 0.50074239472048243 1.755469316731936 203 215 255 333.235901 397.733154 7
-0.34483083063287756 0.3542279471412787 1.8186594104859286 255 122 107 311.736786 365.484528 7
0.23922647366536465 0.26113323327655313 3.9333518257083 126 146 255 401.316345 308.153625 7
-1.1507887908011782 0.44020403549079057 2.1676418900587606 255 11 14 179.159088 372.650879 7
-1.1149285734088208 -0.76145314673889475 1.7497730549665844 255 74 93 139.74408 118.244995 7
