ply
format ascii 1.0
comment Written with hapPLY (https://github.com/nmwsharp/happly)
element vertex 124
property double x
property double y
property double z
property uchar red
property uchar green
property uchar blue
property float ix
property float iy
property uchar octave
end_header
-0.608645617968115 -0.47615878597081851 1.9379276377229249 230 231 255 261.600006 195.600006 1
-1.0508289659126566 -0.90299916896758092 1.744102413627326 133 255 97 154.800003 90 1
-1.1715193629397622 -0.70643166453811135 1.8982612776849295 255 172 184 147.600006 145.200012 1
-0.03632980179553269 -0.026235786289620006 6.2487756047605938 140 255 98 382.800018 285.600006 1
-1.2676405604605665 0.32929056126431888 1.7584618783325845 222 203 255 109.200005 358.800018 1
1.1051302388092903 -0.67041640109897949 2.6065092099642291 229 238 255 545.76001 190.080002 2
-0.73375629233065665 -1.5003115703317293 4.5064898841861627 200 216 231 324 159.840012 2
-0.47114833157807601 -0.3560444205076807 2.1003341360970804 228 235 242 296.640015 220.320007 2
-0.97412220946000083 0.39443059868446528 1.65872617739024 255 75 78 159.840012 381.600006 2
-1.1474323824943378 -0.10367135559028046 2.6168884431090724 135 255 81 218.880005 273.600006 2
-0.68602814973921422 -2.0362141974697296 4.9066764317869609 255 175 200 331.200012 126.720001 2
-1.0115916300577155 -1.9761133015361128 4.5510627470716871 221 255 172 298.080017 120.960007 2
-1.1304763205910642 -1.0020467364268399 1.9299067965369128 255 67 83 159.840012 87.840004 2
-1.3295122666963368 -0.77244099845003145 1.9267104776152406 210 218 229 116.640007 132.480011 2
-1.3225009925851356 -0.85155318632788157 1.9058776730963736 255 208 216 115.200005 116.640007 2
-0.26484863150484528 0.51518143840349506 1.9389129862184658 255 235 236 331.200012 390.240021 2
-1.3573568844220314 -0.2084179920289817 1.994375347257773 242 243 245 120.960014 247.104019 3
-0.27954376595649366 0.45608701235073312 1.9028225565582115 164 255 161 326.592041 378.432037 3
-0.41921524448651226 -0.32749800027612924 1.9160708528367092 235 242 255 297.216034 221.184021 3
-1.1377537452996678 -1.2272797381547875 1.9143973332609892 111 255 64 158.976013 43.2000046 3
0.90242305035310277 0.42466951363927491 2.8651351980179287 78 84 92 504.57605 345.600037 3
-0.83244864348499981 0.33072309796692295 1.6135593300762316 30 33 13 188.35202 368.064026 3
-1.127231975598971 0.19230902766874824 2.7796319103140466 112 116 131 228.096024 312.768036 3
-0.28904403685381941 -0.16110054524438167 1.3159303805441445 240 245 255 297.216034 240.192017 3
-1.0981233043772138 -0.44711170066845352 1.8741566043901772 121 255 78 158.976013 195.264023 3
-1.3085827473711356 -0.54147356196213337 1.9044846447729289 239 242 255 117.504013 177.984024 3
-1.159670436286341 -0.13838764127572789 1.9416089687084441 115 135 255 153.792007 259.200012 3
-0.67459064741322194 -1.9873931640218165 4.78319477334336 223 255 177 330.048035 127.872009 3
0.92686061391233787 -0.46279803718977974 3.0872657688539968 239 244 255 501.120056 228.096024 3
-1.182979788063466 0.32141691224794083 2.1298614908492448 112 122 255 169.344009 345.600037 3
-1.2278571123800144 0.33415144502459937 1.6979445518016534 231 212 189 108.864014 362.880035 3
0.48262330314364865 0.522611204553174 1.2205610446487589 255 140 156 535.680054 451.008057 3
1.048231850516451 0.42086183468065286 2.6525797013786212 106 108 255 537.408081 350.784027 3
-0.63649093531143963 -0.4890743558466496 2.0081679187264969 230 230 231 260.92804 195.264023 3
-0.39692293791374578 0.3559560746095432 2.0247380889162145 168 154 161 308.966431 356.659241 4
0.078191518041444974 0.52873752524393558 1.7052909671841872 214 255 202 402.278442 410.572845 4
0.97378800986204339 0.47828201441653267 2.8067743788081767 79 84 90 516.326477 352.512054 4
-1.0394407902258624 0.36268640598888813 1.8470747035810122 13 4 255 165.888031 362.880066 4
-1.127231975598971 0.19230902766874824 2.7796319103140466 112 114 130 228.096039 313.113647 4
-0.62217469528019986 -0.5612461449249555 1.9703465289580566 230 231 255 261.273651 182.476822 4
-0.47563351466739112 -0.25138187381350841 2.0605530417707367 235 239 245 296.524841 240.537628 4
-1.044613687394742 -0.14168778857056807 1.7207776633451597 115 135 255 153.446426 259.200043 4
-0.78958469991484437 -0.25298339452020224 1.6739899246952197 105 129 255 205.286423 230.169632 4
-0.63989244060353556 -0.86087775733306282 2.5538667920771934 230 255 197 286.15683 155.52002 4
-0.90212836065351487 -1.7422044848620251 3.9792996289832097 222 255 172 294.451233 122.342415 4
-1.0025824971266433 -1.9371090583700488 4.4919169060881519 222 255 172 298.59845 122.342415 4
-1.3025158197791891 -0.99024884947729763 1.9013181959449423 221 255 197 122.342415 89.1648102 4
-1.3093882954027154 -0.93950008403955909 1.9043555709848508 210 216 226 120.268814 97.4592133 4
0.59459513182922175 -0.43447455676394642 2.6860465319287004 243 244 245 464.48645 228.096039 4
1.0197640395585257 -0.52695767015551387 3.4716567036118899 255 236 239 499.737671 228.096039 4
-1.2027471357667161 0.31105875138089129 1.9308129990787952 255 205 203 143.078415 350.438446 4
0.32837495121297233 0.39499662515454814 1.0685664571840299 231 230 255 501.811279 429.23526 4
1.0176480628592306 0.51540980931767832 2.3389979272600199 119 126 132 552.407104 373.248047 5
-1.127231975598971 0.19230902766874824 2.7796319103140466 132 255 118 226.437149 313.528351 5
-1.0025824971266433 -1.9371090583700488 4.4919169060881519 222 255 172 298.59845 121.927696 5
-1.1334470414645983 -0.99126686539386477 1.9101659515650771 255 67 83 159.252502 87.0912094 5
-1.3257626519429113 -0.62734223973908754 1.9369823471186445 230 233 237 116.951057 161.740829 5
-1.270654804973435 -0.74637296486559557 1.8408880195371569 210 218 228 116.951057 131.880981 5
-0.34708883452404216 -0.032809116536060001 3.9316000350784313 121 141 255 353.341492 286.15683 5
-1.3025158197791891 -0.99024884947729763 1.9013181959449423 202 219 255 121.927696 87.0912094 5
-1.3628057586019389 -0.40357261665081468 1.9871381516691469 255 238 239 119.439377 209.018906 5
-1.2611913508728581 -0.45694219872935049 1.8361593923878088 236 237 241 116.951057 194.088989 5
0.6263022538379901 -0.47187732989912501 2.856856870076574 243 245 255 465.315918 226.437149 5
0.9278150575774391 -0.62678170490671281 3.329430812178086 242 255 234 490.199097 216.483871 5
1.133560206399495 -0.71703815838507112 2.848337614966578 255 220 229 539.965515 191.600662 5
-0.66919937873024038 -2.0093476392639844 4.8181913036914699 223 255 176 330.946594 126.904335 5
-1.3299204680285035 -0.43812111117005792 2.9022137305032585 134 255 90 206.530594 231.413788 5
-1.152137144087793 -0.7750575348534029 1.9248854876370127 78 98 122 156.764175 134.369293 5
-1.0849634607653891 -0.83032224619421369 1.8437101813901644 255 82 99 159.252502 116.951057 5
-0.67658278312180808 -0.084684275348339083 1.994113764733719 226 227 255 253.80867 268.738586 5
-0.47379106104215607 -0.24789356737457519 2.0615634594739976 235 240 245 296.110107 238.878754 5
-1.2531122113465996 0.31415242131711185 2.2673426829675227 120 131 255 169.20578 343.388214 5
-1.0884190963690821 0.39510079104364149 1.5958329470789878 232 231 255 121.927696 380.713013 5
-0.40909646354548146 0.41108672141897462 1.6598269523150573 255 195 200 291.133484 380.713013 5
0.46520731672188931 0.49923253228444753 1.1722823091270884 178 255 143 534.988892 450.385986 5
0.19812940192376538 0.24825736279642072 4.1105299745903752 104 124 144 400.619568 306.063416 5
-0.30092529276763114 0.45409821114465054 1.9346762422298172 160 162 255 325.969971 378.224701 5
-1.0746835336995235 0.14983622185837719 3.085565020034819 255 185 187 247.836716 310.542389 6
-1.080706000823271 0.19208760329379493 2.6396649863646786 132 255 118 226.93483 313.528381 6
-1.1636465327407208 -0.97432466056417932 1.9152242517780484 102 118 146 152.285217 89.5795364 6
-1.3244667516921687 -1.0101267211004465 1.9505004517263407 221 255 197 122.425369 89.5795364 6
0.59176908197286893 -0.6872485308034999 4.127866128212152 156 255 108 438.939728 226.93483 6
-0.66717632671569049 -1.4168645086477327 4.1641591653757866 200 216 231 316.514374 158.257187 6
0.97747489396279419 -0.72603643165277554 2.7721934801153667 255 223 230 519.56134 191.103012 6
-0.43057270771729117 -0.32553085804725268 1.9376829215914988 255 229 236 295.612457 223.948837 6
-0.42821651847913644 -0.45912857267377372 1.8755282657103489 255 227 232 295.612457 194.088989 6
-0.69492592172227852 -0.090582799087312066 2.0379284408019149 227 255 224 250.822708 265.752625 6
-1.3536791163393609 -0.19696862801213816 3.1473417985546135 104 255 66 214.990891 268.738617 6
-1.3411811804503766 -0.41588223201550156 2.9128745154661564 142 255 98 206.032928 232.906799 6
-1.1558846919469574 -0.2492169693455063 1.9239946298142914 120 134 154 152.285217 244.850739 6
0.47221672680482829 0.52164347052381532 1.2554733605763815 178 255 143 534.491211 450.883667 6
-1.0754151336395568 0.27259431592883621 1.9137002628581912 131 255 104 170.201126 343.388214 6
0.1812818600893269 0.20866916085336118 5.0451299868834676 104 124 144 400.121918 307.556396 6
-0.57531148458363157 0.38159711425187476 1.6543583540404136 86 71 255 253.808685 373.248077 6
1.1507936404384593 0.4040848337825696 2.0493729443624082 255 121 140 603.168884 367.276093 6
-0.43808265738193741 0.20881459564990892 2.0345623512468003 176 255 165 298.59845 331.444275 6
-0.26254107748297262 0.489964844895454 1.9329080495508348 255 194 202 331.444275 385.192017 6
-0.40581189398214246 0.41791865599132849 1.8831090295488235 66 79 255 301.584442 373.248077 6
1.2335806579454185 0.37586674239802831 1.5335605953243645 149 152 154 692.748413 382.206024 6
-0.99151530023716061 0.39709033054279075 1.6634525230640071 35 255 42 158.257187 379.220032 6
-1.1919423515777203 0.42579361211210376 2.3447095605029959 65 69 28 188.117035 364.290131 6
-0.72437969702612914 -1.4723826956048225 4.328370603674399 231 255 199 318.903168 157.659988 7
-0.62045645934458182 -1.866139283437162 4.4881208076237522 201 223 255 329.65271 128.994537 7
-1.0599346287882079 -0.11860773236741662 1.9218427022604554 255 97 124 171.992722 265.155426 7
-1.4194965702805522 -0.46270183595532455 3.0926641593106172 94 114 139 204.241348 232.906799 7
0.0077551350543103581 0.52554812341950163 1.3638691634877826 255 102 134 383.400421 437.148163 7
-0.41496707762275653 -0.24522757044580989 1.8821450898554826 239 244 255 293.820892 236.48999 7
0.89432054017052509 -0.51133663358007975 3.280029708917314 255 241 242 487.312714 229.323624 7
-1.1065379390911945 0.38887166276687923 1.6131167686924064 199 255 208 118.244995 376.23407 7
-0.97844376757667373 0.28260566257066499 2.0246716146480086 46 38 255 197.074982 340.402252 7
-1.0787245198936701 0.18625066286004999 2.6173829990053266 120 134 255 225.740448 315.319977 7
-0.39737812886510548 0.41544961947117776 1.8422257949550969 82 90 107 300.987244 372.650879 7
1.1239292890306991 0.46179310853867617 2.4500001840951189 64 255 28 562.559509 361.901337 7
1.7198877034292701 0.29388965623301694 2.2472103684599203 118 139 255 673.638123 340.402252 7
1.1233356006785451 0.24032534603961841 2.4306534685887042 149 255 116 562.559509 326.069519 7
-0.36057347761309755 0.50293970333954707 2.1832275435010065 195 255 200 322.486359 379.817261 7
-0.41886316806056367 0.36359535793265613 2.1747102710799391 160 141 151 308.153625 354.734985 7
-1.092392443530195 0.41363167357133618 1.8478199857213746 42 46 255 157.659988 379.817261 7
-0.056975241244085595 0.50296885618428189 1.5910201954716481 237 236 255 369.067719 408.482697 7
-0.31149973268432896 0.51535932590882172 1.2864471684694423 141 162 255 293.820892 440.731354 7
27.670796612615273 -29.088642809578324 72.559479205494355 228 255 201 526.727722 136.160904 7
0.29483878543031183 -0.53937105218587489 4.5061509654187661 157 168 175 408.482697 243.656357 7
-1.2516162226148095 -0.19726548750490835 1.8323390336210146 242 245 255 121.828178 243.656357 7
-0.75194012459330395 -1.11037346679335 4.9172185185203103 241 255 232 322.486359 204.241348 7
