ply
format ascii 1.0
comment Written with hapPLY (https://github.com/nmwsharp/happly)
element vertex 153
property double x
property double y
property double z
property uchar red
property uchar green
property uchar blue
property float ix
property float iy
property uchar octave
end_header
0.73304850442515401 -0.80033219851554016 3.9342148335741118 240 243 255 457 209 0
-0.45762787976376829 0.44124809489836542 0.71764063787092547 255 163 176 139 526 0
0.55842307177772454 0.45653650515281563 1.9025297305502171 121 135 255 497 382 0
-1.7272488753740407 -1.3102668763866934 3.0266621663316284 212 218 228 164 121 0
-1.4555939307246883 0.33466048142869764 2.855980295286543 255 155 165 187 334 0
-1.7483667579819304 -0.028873066208792986 3.0612586772389916 247 255 245 166 283 0
-0.024336712102079883 0.4007908593449353 2.9276703670180493 216 255 203 382 340 0
-1.7559044930177081 -0.32618335618417538 3.060627569347774 255 241 242 163 247 0
-1.2931331638705879 -1.9173462822291476 5.2601429814856022 202 214 227 288 148 0
-0.34967975046861466 0.45543981000483597 1.4916485731102851 138 255 101 294 406 0
-0.59399229235833495 0.35919614680700623 1.1670722575541543 147 42 255 189.600006 408.000031 1
-1.6981192955863849 -0.063402053626404026 3.0437686337361458 245 247 255 169.200012 279.600006 1
-1.5839578974156932 -0.23213104297589465 3.0046812562101728 244 245 255 181.200012 258 1
0.0036010817998290978 -0.75671912732012703 5.4698406470729468 164 159 255 385.200012 235.200012 1
-1.6672131920258466 -0.20102643912992252 3.9704404078346549 255 101 120 223.200012 271.200012 1
-1.5178032689346379 -0.83936389053876481 2.9710437018733598 255 224 230 187.200012 181.200012 1
-1.7967030113192806 -0.86773261599323259 3.1222557629685679 255 228 232 163.200012 181.200012 1
-1.5873472354405846 -1.0355838827212085 3.0669695805062336 209 219 231 184.800003 157.200012 1
-1.5862600615538325 -0.32295298382839221 3.0603969351724309 255 239 242 187.200012 247.200012 1
-1.7877593203336155 -0.48138495213177346 3.1099917901236469 240 241 244 164.400009 229.200012 1
-1.5579567113093402 -1.074750386408984 3.0331192599903387 255 206 217 187.200012 151.200012 1
-1.718585162176578 -1.068436795118219 3.0080995557353059 218 230 255 165.600006 151.200012 1
-1.5275992198206496 -1.2920051493355771 2.9782646060462641 255 184 202 187.200012 121.200005 1
-0.032290134754470401 0.43457156756433402 0.72152173581337542 255 221 222 367.200012 517.200012 1
-1.6494405131720073 -2.0388219458996955 2.9693905406005991 157 198 255 169.200012 25.2000008 1
0.10381315759266663 0.44218187864048253 2.2611324736963141 255 226 227 403.200012 361.200012 1
-1.5137756139142358 -0.7468891280718013 3.3554506286676702 255 186 196 211.200012 201.600006 1
-1.0163870308823815 -1.4590136166150476 5.1401074717469912 255 212 224 307.200012 181.200012 1
-0.82677904187408302 -0.40413842410482093 3.024125145355852 255 227 228 279.600006 237.600006 1
-1.6983909029719664 -1.7617309043598615 3.0432017157572009 208 255 147 170.400009 66 1
1.5044650506230328 -0.84196137067851207 2.6407998289775567 231 255 205 602.400024 166.800003 1
-0.042521266736789576 0.31197817932487509 0.71128180706854804 224 223 255 361.200012 457.200012 1
-0.31821450042898602 0.42042105096325022 1.3723719088084168 97 127 135 292.320007 404.640015 2
-1.0639778419255523 -0.5656030767639848 3.1445721748445896 180 186 192 256.320007 220.320007 2
-0.99296409813322484 -0.71063703014146817 3.00496233447168 167 255 103 254.880005 195.840012 2
-1.4913277702145038 -0.90423093111359987 2.9340688384118376 255 215 224 187.200012 168.480011 2
-1.7619845795024851 -0.94126365537354473 3.0660023569262549 233 255 219 162.720001 168.480011 2
-1.5001167089978522 0.29763091498555788 2.6481335545665949 229 216 201 168.480011 331.200012 2
-1.7738668235232069 -1.4814902559621288 3.0902832654709744 192 204 221 164.160004 103.680008 2
-1.5294890414506681 -0.60536973846921482 2.982670994400296 235 240 255 185.76001 210.240005 2
-1.6980414453558201 -0.31962873981722895 2.9849035036840164 241 242 245 164.160004 247.680008 2
0.11494009493682489 0.47881949592203765 2.3693203141201127 230 228 255 401.76001 364.320007 2
-1.5069644372959758 0.12594168801408634 3.8213957487365704 255 106 122 231.840012 300.960022 2
-1.3606107156465899 -1.9679047292566172 5.7345418797771464 212 228 255 293.76001 155.520004 2
-1.1603984799027938 -1.5807415758455161 5.6394652747413669 235 255 212 306.720001 181.440002 2
-1.0555332058612517 -0.15379032657861585 3.033328988140422 118 255 80 250.560013 267.839996 2
1.5263028531760712 -0.85914376550786942 2.7223937811231513 218 231 255 601.920044 167.040009 2
-0.042023403956390926 0.3105246212567373 0.70829431103690688 222 223 221 360 456.480011 2
-0.13306588537574404 0.33014013600075004 0.65148742456368858 224 223 255 305.279999 483.840027 2
-0.034971397896245149 0.43758671642243707 0.72708734294052224 255 221 222 367.200012 516.960022 2
-0.75568585517275899 0.27571651456634411 3.0014576882589181 176 178 185 288 321.120026 2
0.56973475057127698 0.47068130618069548 1.9524316889737654 255 151 159 495.360016 381.600006 2
-1.5163269384073801 -0.68032912461091422 2.9551405926523602 230 234 239 184.896011 198.720016 3
-1.6772705347007273 -1.3661255669205892 3.1910812414934364 186 203 222 184.896011 120.960014 3
-1.5573812435911707 -1.5199658728493004 3.0145061427024404 217 255 176 186.624023 95.0400085 3
-0.59023036161870701 0.38379585421299456 2.7465845454010718 202 255 169 298.944031 340.416046 3
-1.4914930678049898 0.12726014594564911 3.7466753586738868 255 106 122 231.552017 300.672028 3
-1.086921339710778 -0.16328077284868267 3.0877559175182241 75 92 112 248.832031 266.11203 3
-0.83513547918551545 -0.40179296635893941 3.0383531747923267 228 255 227 278.208038 236.736023 3
-1.7497553504215881 -0.48510905589787645 4.0171911629204358 118 133 154 216.000015 243.648026 3
-1.7078262767595276 -0.46740521925161771 2.9977509150028774 240 241 244 164.160019 228.096024 3
-1.091601284764772 -2.0689730098223085 5.9233402638698411 195 212 228 312.768036 155.52002 3
-1.6757494823607626 -1.7427869661610527 3.0179358621005195 255 143 173 171.072021 63.9360046 3
-1.5705153522889699 -1.020972034830524 3.0319201771491096 209 219 231 184.896011 157.248016 3
-2.0412250749496939 0.39853891809481035 3.5693818632702463 255 229 216 167.616013 331.776031 3
-2.1291172604804376 0.57712145157852157 3.2262801506027508 255 92 119 131.328018 357.696045 3
0.22643148899271748 0.44905843802033502 1.1625910924705496 200 203 208 456.192047 435.456055 3
0.0061449933937127721 0.45339366968551859 0.79637578148142496 221 220 255 385.344025 508.032043 3
0.59424254697552614 0.50288029909700827 2.0991252269125025 192 255 180 494.208038 380.160034 3
-1.6604148631823685 0.35333105356322425 2.965695674862376 255 229 216 167.961624 331.776062 4
0.47179616068695229 -0.5074873769950019 3.833531077672558 255 233 237 431.308868 236.390427 4
-0.74427602021521766 0.31761304251311251 1.6013752877144585 255 187 192 207.360031 362.880066 4
-1.4765366043328596 0.13570645102629186 3.715374419995193 106 122 141 228.096039 302.745636 4
-1.0147195794438555 -1.9225547248554422 5.5472987117693888 212 228 255 313.113647 155.52002 4
-1.4060134226340373 -2.004258628301721 5.5848231846355327 227 255 221 286.15683 149.299225 4
-1.7196753550217436 -1.7136734252615755 3.0198326790611474 178 209 255 165.888031 70.5024109 4
-1.7033605480638343 -1.7806928028536668 3.0611369431052968 207 255 144 170.035217 64.2816086 4
-1.5722551054496958 -1.0501371724383428 3.0134367431183486 209 219 231 184.55043 157.593628 4
-1.0133689128932568 -1.0632727709216132 5.4588791459701707 229 235 240 308.966431 213.580826 4
-1.171344485286784 -1.587647423391144 5.5917826316560815 211 223 235 304.819244 180.403229 4
1.0734530228611545 -0.74594504947096951 2.8465569913827919 222 229 237 528.768066 186.624023 4
1.6527155983557928 -0.87881815218859105 2.7346173077337479 217 231 255 617.932861 167.961624 4
-1.5869212625737728 -0.85928332928896345 3.0630186362314258 224 229 236 184.55043 180.403229 4
-1.6878462561137728 -0.82258907820868488 2.951051439024813 255 227 231 163.814423 180.403229 4
-1.4561897614497132 -0.19071351527750149 3.0051102943925132 244 245 246 196.992035 263.347229 4
-0.51651645985036732 0.37683894074748492 0.60098654879845426 255 93 122 51.8400078 530.841675 4
0.40912788032155856 0.46455996071007127 1.3802166379722944 145 163 255 497.664062 418.867249 4
-1.1017223168681203 -0.16367675521459807 3.1399562992653731 76 95 114 248.832031 267.494446 4
-0.84033227507621788 -0.4024872637649029 3.0557809230910902 228 228 255 277.862427 238.464035 4
0.19214320890931758 -0.72016461976246937 4.9271092619385808 186 255 150 398.131256 232.243225 4
-0.73100363567841953 0.2679552761799821 2.9300434241061577 170 171 178 288.230438 319.334442 4
0.73985176679711473 -0.81997023457959406 4.0970588597306978 239 240 243 456.192078 209.433624 4
-1.6419806613602086 0.34760400317860596 2.925126235304043 255 174 178 171.694107 335.923248 5
-1.5161620458534872 0.33808469450826883 2.9851363709244865 196 255 178 186.624023 333.434937 5
0.44683352472221305 -0.4888501503837277 3.6015254565938966 242 255 231 430.479431 236.390427 5
-0.12270857948546299 0.10454685994251622 2.9801442838940591 164 255 115 370.759735 298.59845 5
-1.3990171486984551 -1.9710491942229806 5.5516790586780003 202 214 227 288.645172 149.299225 5
-0.58773106295294864 -0.86875153495642676 2.9534294642112591 255 210 222 303.575073 179.159058 5
-1.0147195794438555 -1.9225547248554422 5.5472987117693888 212 229 255 313.528351 156.764175 5
-1.6874222854455891 -1.7693110219557895 3.0371684390760811 255 142 172 171.694107 62.2080078 5
15.813126846647549 -19.00077592490489 33.515989992111066 209 255 138 562.360413 72.161293 5
-1.7372749552979427 -1.0872383353453532 3.0554207578540953 230 255 209 166.717468 151.787537 5
-0.48579138877302208 0.33982700391150222 0.56177828429213661 106 136 151 52.2547264 515.082336 5
-0.38013570939201102 -0.068831187347638906 6.4879463369213859 95 116 136 360.806458 283.668518 5
-0.028495516725948633 0.42126309403405748 0.70219314475814421 222 222 220 368.271423 515.082336 5
0.43517355569435534 0.48807154458777835 0.80785683782151252 219 219 217 592.220215 520.05896 5
-1.0192313110413167 -0.7118992719875501 3.0674743150323782 180 186 195 256.296997 196.577301 5
-0.828525996604216 -0.39098050430722303 3.0101725698761874 228 255 227 278.691895 238.878754 5
0.04445437667033536 0.4497246268660301 1.7311790809389249 255 215 216 395.642944 388.177979 5
-0.76396465822318849 0.25999715236396626 3.0466352096069724 170 171 179 288.645172 318.505005 5
-1.8655209419898879 0.34057431365183249 3.2265440475248282 207 255 229 166.717468 330.946594 5
-1.6855400612697111 -0.31217024354024281 2.9972917985593526 245 255 241 166.717468 248.832031 5
1.5224826025115639 -0.78380661166337384 2.6457903893923356 203 218 232 600.182922 170.201126 6
-1.6042447414361987 -1.0642924437066896 3.0478003927565394 230 255 208 182.145065 155.271194 6
0.66509717833355586 -0.74788968575489123 4.6139385081841171 255 233 237 435.953735 226.93483 6
-0.039107110786797961 0.43385064850628752 0.73783916437216934 255 221 222 367.276093 513.589355 6
-0.1284461061676514 0.32863998113731707 0.64186147383197167 255 222 222 307.556396 486.715485 6
-0.24869891432978042 0.022189567182776676 4.313653785246319 136 255 93 358.318146 283.668549 6
-0.036762623754431623 -0.50469200433762496 4.6585790872691222 55 70 84 376.23407 247.836716 6
-0.97578527025045503 -0.59416339988782452 3.3899095470990046 231 231 255 277.696564 220.96286 6
-1.0909404447075728 -0.98946805313910624 3.9754568236989014 227 255 225 274.710571 188.117035 6
0.09822061738712029 0.47637563236480457 0.88545274625147097 141 255 114 426.995789 501.645416 6
0.49834868305679458 -0.57659462921888238 4.3672793446142695 217 255 137 426.995789 238.878769 6
-0.97248359355509617 -0.15693600476710953 2.7800571355650128 255 73 90 247.836716 265.752625 6
0.54498584118151094 0.45765954121667046 1.9156283875939399 202 202 255 489.701477 379.220032 6
0.093358193580014737 0.48730411146052377 2.4051426582719246 230 228 255 397.135956 364.290131 6
-2.1899995511976211 0.32123950590709605 3.7744700544929639 226 224 255 161.243164 325.472321 6
-0.39514516730963511 0.46859879914622299 1.5801285522887878 125 134 255 289.640503 403.10791 6
-0.84556078395233847 0.2647687810030066 3.3471276711357838 157 255 117 286.65451 316.514374 6
-1.4061311352797934 0.11803562592510863 3.5327060671111887 114 133 255 229.920807 304.570435 6
-0.96551798007829692 -1.402461334242473 4.8712068594012603 222 234 255 301.584442 179.159073 6
0.39881774468310605 0.47267671719375087 1.2355832165439811 206 209 208 508.811798 433.564972 7
0.40558496074225492 0.47172383818437869 1.4518615988192138 178 255 151 490.895874 412.065887 7
-0.50654116049737574 0.39009071165687759 1.0555595783059233 124 149 255 197.074982 429.981781 7
0.53129782385328617 -0.63151986173378805 4.7682593648076974 217 255 135 426.398621 240.073166 7
0.83756695284186966 -0.40860945759458733 3.1396561548612061 241 243 245 480.146332 240.073166 7
-0.94067743492259037 -0.44081195428727182 2.7772753389316196 217 219 255 257.989075 222.157257 7
-1.2879318552366907 -1.7041842090006583 5.9880751339022469 211 222 234 300.987244 179.159088 7
-0.94071435672828363 -0.39901805877094237 3.2750969377747365 255 226 227 275.904999 240.073166 7
-0.40905989050620595 0.3914007148887107 0.97607557464161276 82 78 255 225.740448 437.148163 7
-0.46722042143440379 0.30706564944606685 1.5273198727839188 87 101 111 268.738617 358.318176 7
-0.680130293443445 0.3309388979304646 0.91703903259178632 255 109 136 103.91227 419.232239 7
-0.79687129652783728 0.33779281226543262 1.0582674499825089 197 198 197 96.745903 412.065887 7
-0.57649647119229308 0.2938795497239739 2.3712120359279147 171 190 255 297.404083 336.819061 7
-0.97561036515939126 0.2777499557242426 3.7764621506192491 155 255 117 286.654541 315.319977 7
-1.3708707630759021 0.13456654339626123 3.4394230867735107 114 133 255 229.323624 304.570435 7
-0.15733839157874741 0.11784341769811302 5.2602153706696511 133 161 255 369.067719 297.404083 7
-2.0739831277439675 0.18158009679036635 3.3835834413323536 247 255 239 150.493622 300.987244 7
4.2752927744941722 0.46550385890856832 13.525074887847707 82 111 129 512.394958 304.570435 7
0.49683573354067234 -0.57868697458577789 3.5646503931749614 235 238 243 444.314514 229.323624 7
-1.7002070175523829 -1.7985141274707799 3.0485201952958523 155 179 209 164.826355 68.080452 7
-1.1861821806548418 -2.1082665211289271 6.2140392808021412 255 199 215 311.736786 161.243179 7
-1.6991775955732424 -0.31407365333879417 3.0507371021482799 241 242 245 168.409531 247.239532 7
