ply
format ascii 1.0
comment Written with hapPLY (https://github.com/nmwsharp/happly)
element vertex 135
property double x
property double y
property double z
property uchar red
property uchar green
property uchar blue
property float ix
property float iy
property uchar octave
end_header
-0.46909390783558758 -0.48695944098561861 1.0068723864547762 192 217 255 205 103 0
-1.6654059183531764 -0.5167053835392984 3.2078969018860635 244 255 239 186 226 0
-0.92743814950330039 0.23860815606583874 1.7942095057000778 255 212 215 187 340 0
1.1957424977242683 0.50975733398012757 1.5630512024696701 255 102 108 675.600037 412.800018 1
1.1896850126166996 0.46922001766636934 1.6627157127820089 137 165 255 657.600037 396.000031 1
0.15379496353223976 0.65843261060755742 3.4358161995582748 164 255 154 402.000031 362.400024 1
-0.46588422236279925 -1.8470722819507452 3.6301262683226758 160 180 255 333.600006 91.2000046 1
1.1755940742877533 -0.67461311336776797 1.9346081762870853 219 225 234 616.800049 153.600006 1
-0.31565021759127676 -0.2962650566537805 1.095606259668235 255 103 116 271.200012 183.600006 1
-0.2819658260429736 -0.15215696352559854 0.96648105558333963 255 136 149 271.200012 226.800003 1
-0.29855061450054743 -0.39168480302788278 0.98906844592686971 255 144 167 267.600006 135.600006 1
0.16703275477815471 -0.0071092406589396973 5.3335733996771673 191 255 172 394.800018 286.800018 1
-0.43692170109152029 -0.38673720848262194 0.92548924240855746 187 205 224 204.480011 129.600006 2
-0.94855957670068936 0.24338405737353275 1.8394884568717655 255 185 189 187.200012 339.840027 2
0.13854823273465899 0.021305627093739565 5.2202261331915629 180 194 255 393.120026 288 2
0.91277277356616326 -0.43457596287481737 2.1046927175097663 255 225 233 551.52002 207.360016 2
-0.46872935450395259 -0.48309333584758729 1.0013479061295163 167 192 217 204.480011 103.680008 2
1.2150719787514652 0.48093558138958264 1.7056655495223429 160 255 121 658.080017 396.000031 2
0.25794321702881051 0.52766559775208988 2.0576675948845535 105 106 255 429.120026 385.920013 2
-0.82447668200281221 0.52758777240913834 1.2372302340316415 101 255 121 126.720001 450.720032 2
1.2413946392854076 0.44883488651154824 1.4044652106164364 175 179 255 725.76001 411.840027 2
-0.99257296924365779 -0.31396966559331962 1.7440168928196531 222 222 255 165.600006 218.880005 2
-0.9540788845556607 -0.60197873256684709 1.3777039309699735 227 227 227 116.640007 118.080002 2
1.4114948954606985 -0.045592993637669887 1.6294702136648311 154 180 255 717.120056 276.480011 2
1.3439341662264368 -0.11331270497171581 1.6668948622877178 177 255 114 694.080017 262.080017 2
1.1128440155406336 -0.55813446032349912 2.5813855926801086 255 225 233 551.232056 207.360016 3
-0.53500129639305616 -1.3997466261454012 3.4576828788487557 80 104 255 321.40802 134.784012 3
-0.50079491468523774 -1.9284875665683927 3.8507685585182747 168 187 255 333.504028 93.3120117 3
0.13428184217099659 0.53053810664770351 3.6396848702963513 255 153 166 399.16803 347.328033 3
1.164381298988566 0.50382978093347042 1.4872495894857014 158 255 166 686.016052 416.448029 3
1.1840304002147333 0.46723078299485044 1.6533351788611368 123 139 167 656.640076 395.712036 3
-1.0142963415437007 0.26739179168126392 1.9745376931938727 218 255 214 186.624023 340.416046 3
0.12877275482769157 0.63883953202205312 2.8033331690675585 143 255 130 402.624023 378.432037 3
-1.4436857263054184 -0.1123063246549284 2.7770550595348205 247 255 245 186.624023 271.296021 3
1.1953604296664369 0.58489148697598303 1.781146663263276 103 103 102 644.544067 416.448029 3
1.2367762448830319 0.45214565978539034 1.4043051201278152 175 179 255 725.760071 411.264038 3
1.2426768439780909 0.4146599434645416 1.4652567749897845 125 255 89 706.752075 395.712036 3
1.0265642677232623 0.53918770514988656 2.0416902059427331 144 137 255 577.152039 388.800049 3
-0.90211714464083625 0.36342194192292726 0.9813317042698837 65 69 88 32.8320045 428.544037 3
-0.970753532079629 0.569915673389225 1.3379709566681415 255 61 70 107.136009 449.280029 3
-0.91813568366666987 0.41642374439348739 1.1525934257198971 67 64 255 77.7600098 426.81604 3
-0.29489536459983201 -0.2807485304113288 1.0165580047374063 255 103 116 271.296021 183.168015 3
-0.4897961213362132 -0.06942814280109566 1.190027445362686 95 108 132 228.096024 266.11203 3
-0.26636108874139719 -0.14546192733987845 0.90561890442596171 255 136 149 271.296021 226.368027 3
-0.31596780001299463 -0.40871571874970303 1.0394039247673486 255 146 168 267.840027 136.512009 3
1.3942972285853528 -0.24975505951147203 1.7173506299877372 245 255 241 698.112061 231.552017 3
0.74832375872902457 -0.62192231497572548 3.1228184673914221 255 236 238 475.200043 212.544022 3
-0.37200000335184136 0.28563869940196812 1.0242674696033913 255 223 226 243.648026 399.16803 3
19.294428704496532 -31.384321652130435 58.707276653654446 169 191 216 508.032043 84.6720047 3
0.10842571092502995 0.467489358381939 2.3521360503082249 164 255 154 402.278442 362.880066 4
-0.18313296148233937 0.41603432313612682 1.0389905626086193 255 42 77 319.334442 443.750458 4
-0.92738782540017262 0.42204236656781302 1.1653183607929711 73 73 69 76.7232132 427.161652 4
-0.45462779485085081 -0.47187336480528774 0.96358906047561144 255 167 192 203.21283 103.680016 4
-1.1516282120466572 -0.36425152626372725 2.0563576687283227 255 221 222 167.961624 219.801636 4
-0.92579028213086634 -0.030276565121217236 1.0353038123141696 255 217 218 39.398407 279.936035 4
0.7469564927999226 -0.31353093175304925 2.8509120272771389 255 242 244 483.148865 248.832031 4
0.46874392423458255 -0.49117304432334297 3.3277880863849711 164 186 255 433.382446 232.243225 4
-0.4942873144682185 -0.037546729554909009 1.036323691913426 255 202 206 199.065628 271.641632 4
1.180776473358621 0.46808566115924011 1.6543577725661587 137 165 255 657.331299 396.057648 4
1.3192074485210139 0.093245192681137692 1.5364660805538453 130 157 255 713.318481 311.040039 4
0.25718391186008915 0.29881619477613552 3.417914399273343 153 165 159 412.646454 317.260834 4
-0.10134286134132653 0.55928343103304023 0.99636169967514876 229 230 230 344.217651 503.884857 4
-0.29030678380331132 -0.15743004899847934 0.98897582083478719 255 136 149 271.641632 226.02243 4
1.4276342790380989 -0.052548268378816043 1.6660889169228623 255 88 149 715.39209 277.862427 4
1.404624870562325 -0.2490194567036681 1.7445094408396562 236 239 242 696.729675 232.243225 4
-0.82016273372930115 0.52271774718157193 1.2312538597516847 131 134 118 128.563217 449.971252 4
-0.50109079166726733 -1.9013082807742983 3.7945450730895045 168 187 255 333.84964 93.3120117 4
-0.51716792142399459 -0.032042656877681486 1.0746159149106944 135 154 255 201.553955 271.226929 5
-0.89573389476762921 0.49683457881813764 1.1666848586588623 255 36 36 87.0912094 447.897675 5
-0.26248527000238209 0.45709687073593952 1.1798244233400839 66 87 255 301.086761 437.944397 5
0.51668433676398129 -0.51483875158895931 3.3506120386941776 83 125 151 440.432709 223.948837 5
0.70534978859913133 -0.31108483095660278 2.6848900460058838 244 246 255 485.222473 246.343719 5
-0.29901543770095973 -0.29433633838796003 1.1155990406781462 255 82 104 283.668518 184.135712 5
-0.37135661070339943 0.28791424329858334 1.0305367915120582 223 255 227 246.343719 393.154602 5
-0.91086733867139058 0.20739811018205734 1.2180002817151463 150 157 255 97.0444946 353.341492 5
-0.29636425960248047 -0.39138098218530515 0.98140847529681574 189 255 174 266.250275 134.369293 5
-0.27273921382713695 -0.048752718472100276 0.84947552826136707 245 247 255 261.273651 263.761963 5
-0.51748745974966148 -1.3853833889100167 3.3488214450498432 54 86 110 320.993317 131.880981 5
1.2339963258184476 0.4290421618137098 1.4298186464610465 120 122 130 716.63623 405.596222 5
1.1516645407689303 0.40243109348946193 1.6814656502919032 191 255 168 646.963318 380.713013 5
1.4412486827730917 -0.059857752506260797 1.7271911150943273 143 173 255 709.171326 271.226929 5
1.3144304084413492 -0.22378139551290838 1.5952851876538432 235 239 242 696.729675 233.902115 5
-0.12910721154668048 0.025686979109430075 2.5461196891617304 118 138 255 365.783081 296.110107 5
0.26905019221488979 0.46656454439392087 2.9714993889443697 181 255 144 418.037811 345.876526 5
0.25920847930443514 0.28383725568126322 3.3524364489051806 161 156 255 413.061188 316.016693 5
-0.96786562589127767 0.26005329651326481 1.87151147475738 213 215 220 184.135712 340.899902 5
1.0737684641206844 0.48668770417218832 1.9970457664251029 93 102 120 584.75531 380.713013 5
0.13360612755497847 0.54344810405104371 2.7770380067381675 255 156 168 403.10791 363.294769 5
16.843456219778531 -19.47077457842142 32.763619974372297 135 170 209 584.75531 64.6963272 5
-0.22770917652105593 0.25270887147275573 0.9573742229272364 50 73 255 289.640503 391.163971 6
-0.33239068616920697 -0.20680267138227848 1.2478284121370979 255 89 110 283.668549 223.948837 6
1.1777258838398648 -0.67264615607970024 1.9707891002270399 255 219 225 615.112793 155.271194 6
0.92311193263124647 -0.53791423893570567 2.7863902706744375 243 255 235 510.603363 214.990891 6
-0.28435210865966853 0.50580421286587174 0.92983618003134172 156 255 119 262.766632 495.673431 6
1.1671060661535553 0.56609580617342425 1.3999213516696436 255 10 13 707.678345 444.911713 6
-0.51716792142399459 -0.032042656877681486 1.0746159149106944 165 170 184 200.060959 271.724609 6
1.3351269025863048 -0.28537670015112482 1.6596840435524163 210 223 255 689.762451 226.93483 6
-0.42602694817930331 -0.057440505946640352 1.0576892509282056 133 255 95 226.93483 265.752625 6
-0.41694857587339307 -0.11038823870761183 0.97624689351680471 92 107 135 220.96286 244.850739 6
0.321386772604632 0.5136879732813775 1.0700724263596548 201 201 255 501.645416 471.785553 6
-0.89776027246129253 0.032603832754778905 1.0470277207325145 118 121 134 56.7337074 298.59845 6
-0.61486160912453292 0.21380231304519315 1.25100501537894 143 159 182 200.060959 352.346191 6
1.3511700596024283 -0.073936436701806052 1.5819332164576032 255 88 154 707.678345 271.724609 6
1.1664065886424577 0.45770724136167468 1.6104117868609134 255 112 127 659.902588 397.135956 6
-0.10237848531532134 0.56118824745703011 1.0133349758512646 255 202 203 343.388214 501.645416 6
-0.11584823009842227 0.52562739884787613 0.9843702198386648 103 103 255 337.41626 498.659424 6
-0.97533412039673362 0.2476685309810609 1.8838942881646661 223 255 211 182.145065 343.388214 6
-0.8982353398695202 0.48910764830755504 1.1587798539846959 31 255 43 86.5935516 447.897675 6
0.97764680995900854 -0.34300890906776105 2.6982541067396211 245 255 238 522.547302 241.864746 6
0.38074392956277059 -0.39958576056164552 2.5077693607734552 164 255 127 438.939728 223.948837 6
-0.44031286447204998 -0.062489228637049088 1.0783345105782325 108 133 255 225.740448 265.155426 7
0.91239631442791735 -0.52944480626847101 2.7023698500203315 235 238 243 508.811798 214.990891 7
0.78143799522493129 -0.66367342294174525 3.3721386911428617 236 238 242 472.97998 211.407715 7
-0.11095144214412023 0.57125059765850228 1.0432498689380916 255 202 203 343.985443 501.645416 7
-0.12350760133739214 0.50735622695527438 0.98341218478260917 47 58 255 333.235901 494.479065 7
-0.53169123204879254 -0.041709507064871032 1.0883422194460977 241 243 255 197.074982 268.738617 7
-0.29761749792212422 -0.2852965184157556 1.0888404457716048 255 82 104 283.07135 182.742264 7
-0.25604539630293477 -0.39780172349163523 0.98571789975237945 255 58 88 283.07135 132.577713 7
1.1419423765006509 -0.34289125383220165 2.0688749579259822 158 187 255 601.974487 218.574081 7
1.1036104131086137 0.44423842381721856 1.5061694971489006 255 112 127 659.30542 397.733154 7
1.5323387144955012 -0.3895617690532327 2.1655876935733778 255 195 211 655.722229 218.574081 7
0.3690702850381602 0.34322854120208668 4.4240930981673161 255 150 165 415.649078 315.319977 7
1.3616852473889853 -0.22198587729414598 1.6933042310898214 255 230 236 695.137207 232.906799 7
-0.93149909926226249 0.24721905588574566 1.7520531754168536 219 255 210 182.742264 340.402252 7
-0.16149288133061668 0.403812385624648 1.0212246020627576 93 255 39 326.069519 440.731354 7
-0.88962044614830083 0.48348565187882597 1.146196434306384 42 35 255 85.9963608 447.897705 7
0.10839837418462128 0.44649877445120123 2.034323710572802 140 137 255 401.316345 379.817261 7
-0.36474856140944079 0.27899880380457109 0.99749471995513517 255 221 222 243.656357 394.149963 7
-0.23701868458260389 0.41558803640869374 1.0726976475265912 39 72 91 300.987244 440.731354 7
1.282060916582543 -0.66127750158203935 1.896471323864052 204 217 231 644.972717 154.076813 7
1.1368341871468086 -0.65769722940686293 1.8726055259837917 211 221 233 616.307251 161.243179 7
0.95758552993876955 -0.32767244644925431 2.641993489967402 255 239 242 519.56134 240.073166 7
-0.43791391295098014 -0.38603258759446835 0.93063881874351351 255 190 207 207.824539 132.577713 7
-0.56518950802123502 -1.4180880341642834 3.4678093354007888 108 255 54 318.903168 132.577713 7
-0.6265801591034954 -1.0697632865358353 4.0958740050607929 159 255 111 326.069519 186.325439 7
