ply
format ascii 1.0
comment Written with hapPLY (https://github.com/nmwsharp/happly)
element vertex 162
property double x
property double y
property double z
property uchar red
property uchar green
property uchar blue
property float ix
property float iy
property uchar octave
end_header
-0.24535516115583267 0.13765108045588326 1.3497296317489393 174 194 255 313 328 0
-0.44041564022416235 -1.1017982783872537 1.7145042816776428 213 255 143 286 43 0
-0.19417298831494723 -0.27959278430950807 1.1021039642557948 255 109 181 315.600006 189.600006 1
0.72332893320924052 0.65037204447784358 1.4938673976652579 124 132 141 568.800049 456.000031 1
0.42699580513786373 0.66753653506155208 0.9962593076259818 105 124 255 549.600037 547.200012 1
0.70746402459510693 0.37723486586222599 1.2449754000800777 155 170 255 601.200012 403.200012 1
-0.55006038278124469 -1.3892702480262744 2.1905453156936208 178 213 255 285.600006 43.2000008 1
-0.57480640323392285 0.66880432699009207 1.6574225297727718 159 156 255 249.600006 444.000031 1
0.90806364583671861 0.086099230383393177 1.9790972318718705 255 245 248 559.200012 303.600006 1
0.9144451318569482 0.41053224272543787 1.3520688552059532 109 130 255 645.600037 405.600006 1
0.96081235217562644 0.17875503770052825 1.3098003893515315 255 129 158 667.200012 340.800018 1
-0.14281112310658184 0.68071927905806762 2.3441788225531166 146 132 56 360 399.600006 1
0.83676712674979425 -0.42914570031591959 1.3849526005541426 237 255 213 614.400024 169.200012 1
1.032953553446093 -0.22659805961232893 1.3642473339160288 135 167 189 676.800049 223.200012 1
0.53427541343864893 -0.40935417165960786 2.2822227720792458 246 255 241 474.000031 218.400009 1
0.67655003030729 -0.48150091810114581 1.6659280495029805 234 240 255 541.200012 175.200012 1
-1.5432978671607165 0.079642907717521361 3.2387887850820265 247 250 255 201.600006 297.600006 1
0.58151215666599509 0.66519721322032366 1.3986697797483689 255 140 153 543.600037 469.200012 1
-0.5756246120057642 -1.3480000041666229 2.1558571077357334 143 179 214 280.800018 47.5200005 2
0.9398860760549792 0.17585027482901605 1.278998363196524 167 255 120 666.720032 341.279999 2
-0.51994830318272145 0.39065078910026374 1.4889752100947451 217 218 216 252.000015 387.360016 2
0.70267123397054698 0.45790214927767314 1.764419619390309 255 131 149 535.679993 387.360016 2
0.78642163292344303 0.62163131139875283 1.3133633038696964 139 149 158 612 470.880005 2
0.78468724068351392 0.57719747383699405 1.335691050163911 145 155 163 612 455.040009 2
-0.3127848967411615 -0.27175143002728497 1.1528719040077604 255 228 235 279.360016 200.160004 2
-0.69709428195740886 -0.50699716463127187 2.0576572236700077 225 234 241 252.000015 194.400009 2
-0.71011958389282182 0.51827954987721236 1.9169048132539981 224 224 222 240.480011 391.680023 2
0.61990365874971198 -0.069125074152351917 2.0903182181420075 255 249 250 499.680023 275.040009 2
0.53441222160620061 -0.036063869613672583 2.1901899588541873 249 250 251 476.640015 282.240021 2
-0.25564186858942861 -0.46085107988027474 1.411928259024851 150 198 215 312.480011 162.720001 2
-0.24935064949633778 -0.078557527957963558 1.3648560663236742 174 210 220 312.480011 266.400024 2
-0.55465672995828053 -1.5165093583969829 2.4894709247381073 153 183 215 300.960022 51.840004 2
1.0258962816233308 -0.23312790021155916 1.3462724592087092 255 120 155 675.360046 223.200012 2
0.69405447838806156 0.62423239472092096 1.4266479401728116 123 255 112 570.240051 455.040009 2
0.18286421898339555 0.55981765541474404 0.90551754990855482 170 255 157 462.240021 522.720032 2
0.46515696733609624 -0.357012464243466 1.9957891141807789 242 246 255 473.76001 218.880005 2
0.73940953959739497 -0.58071262055221151 3.2213231602722461 243 246 255 473.472046 217.728027 3
-0.38645122535878906 0.67684891510278078 1.0459610126563827 120 139 163 240.192017 537.408081 3
-0.5297690745591912 0.60598437446070452 1.5134394891138969 185 255 176 250.560028 440.640045 3
-0.44338205137608044 -1.2360440712941902 1.9947032065421633 153 183 215 300.672028 51.840004 3
-0.38082441288042324 -1.4638182419464507 2.2149178046953004 161 188 255 317.952026 34.5600052 3
0.48405327992009495 -0.026186842797202736 1.9290634352979081 249 250 251 476.92804 281.664032 3
-1.6818235051014154 0.66559079827514278 2.3340789309264913 255 203 206 107.136009 397.440033 3
0.78874354913204558 0.62150308150400724 1.5343602702037762 124 255 85 582.33606 444.096039 3
0.5915258319643788 0.013148105753079342 1.9571094729126042 250 251 255 501.120056 290.304016 3
-0.33056036682807388 -0.21229926614701844 1.2162617261649498 245 255 236 278.208038 222.912018 3
-1.9690729801710933 -0.55054009759898026 2.4526023982293044 156 153 155 72.576004 200.448013 3
-0.5756246120057642 -1.3480000041666229 2.1558571077357334 178 214 255 281.664032 46.6560059 3
0.90771189279428999 -0.46790357358961376 1.5222580824632415 226 237 255 613.440063 169.344009 3
0.87620589413863392 -0.063059419353891144 1.6265125974666574 249 251 255 589.248047 276.480042 3
-0.38633191566590419 0.32833507842038578 1.2893368290692218 147 130 255 269.568024 385.344025 3
0.7212777357700404 0.65090220233225571 1.0493978057332427 28 255 13 646.272034 523.584045 3
0.58777121912108599 0.66880019213342257 1.4157678914532825 136 149 166 540.864075 470.016052 3
1.00646737513024 0.19484704364994876 1.3869539633266239 138 156 255 665.28009 342.144043 3
0.46351073558915812 0.65668794979710965 2.3209974002574585 255 125 126 463.104034 393.984039 3
-0.13434529045376387 0.64432024514676067 2.0923971207967744 66 255 154 358.732849 406.425659 4
-0.20404860302533834 0.92539556614388907 3.1218514414533605 134 125 61 356.659241 400.204865 4
0.52185245247465528 -0.40193596736256731 2.1936882788526058 240 242 246 472.780853 219.801636 4
0.63768259011605366 -0.45324343691303337 2.1707852273138091 255 233 238 499.737671 207.360031 4
0.60213366370098509 -0.068610292207532453 2.017826908449722 250 251 255 497.664062 275.788849 4
0.6086452733901655 -0.16212669253683032 2.0819764590093026 247 249 255 497.664062 257.126434 4
0.46577999801417258 0.49268454507511983 2.1985803540623934 111 121 137 464.48645 375.321655 4
-0.31191742117383825 -0.20139831426661203 1.1440327848210519 240 245 255 277.862427 221.875229 4
-0.35312252083776308 -0.28848653774180688 1.2714917816912727 236 242 255 277.862427 201.139221 4
0.26822910633364572 0.17451073984910703 3.6358158524458011 147 255 63 414.720062 306.892853 4
0.55912402479242096 0.027046205214229513 2.0558349699354839 249 251 255 489.369659 292.377655 4
0.80360352040091709 0.63693386313596134 1.3470133291548043 255 150 158 611.712097 470.707275 4
-0.62164876955021242 0.42734262992870775 1.7651672368344498 175 180 189 248.832031 381.54245 4
-1.7383176444071551 0.70353248776751043 2.9453722935931088 130 151 255 157.593628 379.468842 4
0.81493428754620023 0.52891298935239783 1.5019730406661056 121 135 148 588.902466 420.940857 4
-0.25171139761199601 -0.32638902319417529 1.3605163531077338 185 203 255 313.113647 196.992035 4
-0.573936396662583 -1.3550342655466148 2.1644553788264815 255 143 179 279.936035 47.6928062 4
0.72215994108787607 -0.068376745821983942 1.8489505365125201 249 249 250 532.915283 271.641632 4
-0.61419606249213077 0.28342507761933661 1.6511042922240176 163 255 160 242.611237 350.438446 4
-0.3715460297176385 0.7090496078668993 2.7940989137039871 255 121 126 331.776062 389.836853 4
0.7378201234692674 0.65231183667226 1.5150994691796766 121 255 108 570.240051 456.192078 4
0.29679612642333031 0.67554393878423413 1.4101716744053245 128 142 165 468.633667 474.854462 4
0.29206200831249918 0.64848559646789639 1.1084624160051826 255 145 151 487.296082 516.326477 4
0.3508138646751553 0.66152998868150137 1.2273973969861691 255 128 144 491.443268 493.516876 4
0.80530397302435097 0.41617784519859446 1.6083746283144977 139 255 137 578.534485 387.763245 4
0.3602294695227175 0.21115067930743958 3.2207968456469365 196 202 255 429.23526 313.113647 4
-1.9493965626998846 -0.53455484278618703 2.4193724096838611 136 145 255 69.6729736 201.553955 5
0.77974329485758709 0.60939678179997525 1.5277501479536699 122 255 85 582.266968 442.921021 5
0.67474756492774879 0.48546844050440097 1.3052775794486164 255 76 88 579.778625 425.502777 5
-1.4604047046181057 0.6471686490360784 2.1880207842410906 194 182 255 129.392654 400.619568 5
0.8021079671841056 0.63139778650221068 1.348080532483916 127 255 128 614.615112 470.292542 5
0.52185245247465528 -0.40193596736256731 2.1936882788526058 241 242 246 472.780853 218.972198 5
0.09477516083392068 0.041745516688712847 1.3104677902783592 151 255 53 410.572845 298.59845 5
0.16587407361311279 0.11803227502461588 4.2262361396951853 255 59 115 395.642944 298.59845 5
-0.66549561983271266 0.49192820753143929 1.7983888873952196 255 222 222 243.855392 390.66629 5
-0.8598591817590937 0.56727754188956636 2.0964830840657109 198 199 197 228.925476 388.177979 5
-0.22643301502147084 -0.41124132334502361 1.2093306239013 255 173 206 311.040039 156.764175 5
-0.22557501669491842 -0.075546178282416943 1.1906148368914806 195 208 255 313.528351 263.761963 5
0.28590604092032867 0.6323489559432427 1.0754412134547344 255 145 151 487.710785 512.593994 5
0.36226659010340323 0.68802789007197784 1.3024595632258196 129 145 162 492.687439 492.687439 5
-0.23432076580407202 -0.31586148512640699 1.2962340706865332 189 207 255 313.528351 194.088989 5
0.88651767885122057 -0.45678579386115148 1.4778539519589193 237 255 213 614.615112 169.20578 5
0.83500701872020811 -0.50693168081107132 1.6715548754756622 233 240 255 577.290344 171.694107 5
-0.30706595085633825 0.14071666207408695 1.0952740661321609 196 255 160 278.691895 335.923248 5
-0.40237305303622994 0.086232102675126487 1.4745190267036525 164 255 122 278.691895 311.040039 5
0.77879268780417776 0.69815452537102907 1.1429885874521934 13 24 255 649.451599 525.035583 5
-0.36437447223348673 0.33141070334379452 0.58298909686869926 232 255 228 146.810898 502.640717 5
0.76913853173794067 -0.17391473151225645 1.4562612256662604 248 255 246 582.266968 241.367081 5
-1.3809920070199055 0.18222367583269028 3.0488694392017761 255 243 247 211.507233 311.040039 5
0.63748278713267936 -0.5340900581675756 1.9848371499203381 255 226 233 507.61734 184.135712 5
-0.41571020114757529 0.34672997256768046 1.3835824923100706 121 124 127 268.738586 383.201324 5
0.79561149019244493 0.69024327211852832 1.6524912043512643 87 95 109 572.31366 452.874298 5
-0.44825787964689079 -1.2959867384958352 2.0907948457813594 184 215 255 301.086761 52.2547264 5
-0.59004757400552466 -1.3756491510358897 2.2113800186957961 179 214 255 281.180206 47.2780876 5
-0.97371224377713572 0.45820565435254101 2.3978185042906226 168 255 176 226.93483 358.318146 6
0.43458173501338937 0.41965461249881919 2.0235995101213371 147 255 138 462.827606 367.276093 6
-0.70162529092429038 0.50717895909527755 1.9088137409643124 184 183 181 244.850739 394.149963 6
-0.22139469901524045 -0.28297334728296653 1.1565017365993588 225 255 213 310.542389 194.088989 6
-0.22292351221435913 -0.39553818099206239 1.1528963593684534 223 255 201 310.542389 158.257187 6
-0.80810992519614544 -0.30357189057318212 2.3849964011853109 247 255 240 250.822708 241.864746 6
0.83500701872020811 -0.50693168081107132 1.6715548754756622 229 233 240 576.295044 170.201126 6
-1.6882227247663844 -0.45254120016931898 2.0484472544902603 255 154 153 71.6636276 200.060959 6
-0.096656545544860251 0.51424216595661676 1.4540447346678675 174 255 137 358.318146 418.037842 6
-1.0944335599168933 0.39660184674475829 3.1104094852040118 237 232 238 244.850739 334.430267 6
0.55338551264663915 0.64574283653274112 1.359249968413117 143 159 255 537.477234 468.799591 6
0.23005052645054813 0.64358800093368274 1.1261469086512257 143 167 255 465.813599 504.631378 6
0.21113919538828285 0.48629525246115524 1.0205289723330067 156 255 115 462.827606 468.799591 6
-0.36380904007781911 0.33066479711757135 0.5789440539944124 231 255 227 146.313248 504.631378 6
0.57375574506453031 0.63865671280760061 2.0831749026919226 118 128 144 492.687439 403.10791 6
0.58775425971530426 -0.43859565163664982 1.9722866846940539 255 233 237 495.673431 206.032928 6
0.63748278713267936 -0.5340900581675756 1.9848371499203381 255 226 233 507.617371 185.131042 6
0.89875498943576604 0.46932488588305743 1.6049787447246757 133 147 163 600.182922 403.10791 6
0.9215990603989499 0.6047109986025494 1.2418889160644584 218 220 255 665.874573 471.785553 6
0.37360719376609097 0.56299164651484279 1.9553117618682414 184 255 211 462.827606 397.135956 6
0.72925585505097335 0.63441011983648732 1.4640217698248632 87 101 255 573.309021 453.869659 6
0.9262158100532254 0.65764539495981245 1.8552745642162662 255 77 88 579.281006 426.995789 6
-0.32870655160458151 0.66024676321539078 2.6072263489826382 255 22 34 331.444275 385.192017 6
1.0329024690443216 -0.45468553377941578 1.4206217951252436 226 236 255 665.874573 164.229156 6
0.84502785124886182 0.4501444046915557 1.4914147395751103 155 170 255 601.974487 404.899536 7
0.57257819984378777 -0.4198106332804481 1.9118362673344516 244 255 232 498.062256 204.241348 7
0.51597541926238422 -0.38701349583402189 2.1567960493006186 241 243 246 476.563141 214.990891 7
0.87808302096143631 -0.44381492976864445 1.4464317284074362 213 226 236 612.72406 168.409531 7
0.82401111238276337 -0.50444229528394668 1.6535181398675594 234 240 255 573.309082 171.992722 7
0.85075009850063421 -0.24329432983507138 1.4706701826835094 247 248 255 605.557678 225.740448 7
-0.25222804169119284 -0.33746145094186808 1.3361045847137438 255 189 212 311.736786 193.491806 7
0.8996806056462423 -0.075677708682541756 1.6858268216971819 255 249 250 587.641785 272.321808 7
0.51443091857019274 0.5521919101855981 1.7860969163268727 145 255 119 490.895874 404.899536 7
-0.71896099857581186 0.69443842939293887 6.0405217934438369 74 134 156 336.819061 333.235901 7
0.85474504807414298 0.66907626835075451 1.4488366233023271 166 165 255 609.140869 469.39679 7
-0.31400299823330702 0.52193181362290675 1.1087658602041026 255 109 123 275.904999 465.813599 7
0.72407039103416659 0.48395856785844549 1.8895797515628523 160 177 255 533.894043 390.566803 7
0.79546508499932944 0.41176876529606021 1.6077601705956095 165 163 255 573.309082 386.983612 7
-1.340498240411363 0.17419901080345879 2.9680045291691517 255 243 247 211.407715 311.736786 7
0.970030801417338 0.60346752580946772 1.2642430343532762 227 228 227 680.804504 469.39679 7
-0.12239670524668034 0.5618574533281846 1.6343341270736431 186 255 149 354.734985 419.232239 7
0.33726903767947713 0.63321318422797113 1.1653513225678314 156 255 124 494.479065 498.062256 7
-0.70904020401605283 0.37077333213804131 1.9442704510130389 255 142 145 243.656357 361.901337 7
-0.45229087209592223 -0.63006512409509341 1.4638531166055433 210 229 255 265.155426 128.994537 7
-2.1900093907109568 0.29683925991245019 2.9121819376548421 192 192 192 96.745903 322.486359 7
-1.7454644928669305 0.049657427194918391 2.2848773919358134 183 185 255 93.1627197 297.404083 7
0.18454110903322096 0.12895481148174603 3.9368352808323781 113 143 255 401.316345 300.987244 7
0.76347073275314603 0.66253800228337001 1.5477878995639722 90 104 255 573.309082 455.064056 7
0.78385868455719931 0.56079740040851522 1.5974665679295432 75 85 101 576.892212 426.398621 7
0.46140534525622701 0.31311379072876777 2.3499840731383781 208 201 255 465.813599 343.985443 7
1.0116500377761999 -0.4468618734403127 1.3784612519720225 236 255 213 662.888611 164.826355 7
-0.23412246557353811 -0.086798693749845057 1.2431608277915567 255 211 228 311.736786 261.572266 7
-1.8708116863832993 -0.51242884009031853 2.2976738012466766 255 154 153 71.6636353 200.658173 7
