ply
format ascii 1.0
comment Written with hapPLY (https://github.com/nmwsharp/happly)
element vertex 167
property double x
property double y
property double z
property uchar red
property uchar green
property uchar blue
property float ix
property float iy
property uchar octave
end_header
-1.7586208027432351 -1.9511444364361694 3.2951419141285632 161 199 255 181 61 0
-0.69537120279910702 0.33378406799770061 0.73685915929698442 137 255 98 22 463 0
-1.0714194089402502 0.29004719473925605 1.2518171631168433 255 105 116 55 379 0
-1.6447113811556542 -0.91823692360113296 3.1652558155465869 218 224 233 184 178 0
-1.7475890204250684 -1.0494166640706539 3.3104472752298566 218 229 255 181 166 0
-1.7089821771188189 0.042137646173306481 3.2479372380127374 242 245 255 181 292 0
-1.7457613526427345 -1.7416114025095508 3.2864094860860522 170 205 255 181 85 0
-1.6751513797063637 -1.2196958275822962 3.2027375780881613 195 208 223 184 142 0
0.39710104301118565 -0.58040632851976748 4.0513152163560227 236 241 255 421 235 0
-1.6388871184529314 0.11103202667947515 4.0005093966553797 133 255 98 226 298 0
-1.6799184946483496 -0.76110246155873384 3.6088469885854026 228 234 255 205 206 0
-1.6987341585033358 -1.3125425644205828 3.2382407234025634 255 192 205 183.600006 133.200012 1
-1.9132749679868049 -1.3394594321722479 3.3050839922919995 223 255 202 162 133.200012 1
-0.95716003065098443 0.26659633721347314 3.3474649502827107 162 255 165 274.800018 319.200012 1
-1.6596008712117882 -0.38933709933557986 3.1850993706054149 255 237 239 183.600006 241.200012 1
-1.689604145963469 -0.29913808270938136 2.9539015153244628 255 239 241 163.200012 249.600006 1
-1.0325945112232517 -0.42952795180508424 3.3900006271017622 255 222 223 267.600006 237.600006 1
-1.6602382935754569 -0.85098101386269442 3.1888804084122899 255 224 229 183.600006 186 1
-1.8977696898602385 -0.94764547428938295 3.2756092212739674 255 221 227 159.600006 177.600006 1
-1.7064484899812227 -1.0835669935949384 3.2589018062096424 255 203 215 183.600006 159.600006 1
-1.8849291136851605 -1.0837201194811783 3.2602431162835366 255 205 215 163.200012 159.600006 1
-0.70108483103986319 0.36963408592483349 0.87121728603520565 255 139 146 75.6000061 451.200012 1
-0.20933884118181334 0.43196558267220531 0.99664584974788251 255 215 216 303.600006 453.600006 1
-1.721762474976849 -0.62953825429110766 3.2731849288206289 255 227 232 183.600006 214.800003 1
-1.7510382866255534 -0.79003906494995924 3.3324315920874175 255 226 231 183.600006 195.600006 1
-1.9808069543367748 -0.89016032900834352 3.4043948006945235 255 229 232 159.600006 187.200012 1
-1.2627118108888169 -0.1715851125345324 3.3913282569220451 77 97 255 241.200012 267.600006 1
0.30064422467333318 0.44249371163046819 0.76570510589494623 0 0 9 536.400024 511.200012 1
-1.8927852051143019 -2.062896668848909 3.2937139489986422 255 117 152 163.200012 45.6000023 1
-1.8726926868304359 -2.256998927091086 3.3057034264334431 190 255 114 166.800003 25.2000008 1
-0.6825725835657781 0.29960962046416317 0.75598809065254624 255 72 99 39.6000023 441.600006 1
-1.7369483727484551 -0.24716075277830341 3.2358065489875147 242 244 255 177.600006 259.200012 1
-1.6873248778988237 0.28185715496355512 2.927735360349156 255 226 224 163.200012 325.200012 1
-1.9378910403582044 -1.496973454609583 3.3409550714295926 202 210 222 160.800003 115.200005 1
0.51540587837290308 -0.0041017743650033356 0.7653826573803435 255 155 169 643.200012 285.600006 1
0.50754996855710011 -0.69966740679926698 3.58249098219187 255 227 233 435.600006 213.600006 1
-0.92880686607524066 0.35612814820351263 1.2887936576479408 181 168 255 105.600006 393.600006 1
-0.76031800226846769 0.34376969151116693 1.4190337625050697 74 35 255 177.12001 380.160004 2
-0.098115250568927115 0.47250564094808922 2.805174654997816 219 255 224 370.080017 349.920013 2
-1.1709498833319421 -1.4632388675292922 5.3605651209217475 209 220 232 300.960022 181.440002 2
-1.8972338401739304 -0.85269252598550427 3.2615915688934907 236 255 228 162.720001 187.200012 2
-1.5805381902326419 0.26433669422653605 2.7531555148334532 219 255 227 162.720001 325.440002 2
-1.1549988654486714 -0.71712285672305121 3.2487428926258448 128 255 79 246.240005 201.600006 2
-1.2668435440842347 -0.17723105588402788 3.3893541879355404 62 82 103 240.480011 267.839996 2
-1.6419289247861371 -0.21012043237507003 3.2846982732481629 242 243 245 192.960007 264.960022 2
-1.8359399379132619 -0.3323383362151402 3.1962041382186657 244 255 239 162.720001 249.12001 2
-1.8652431800501557 -1.7804084577295793 3.2969008415253862 255 140 169 167.040009 80.6399994 2
-1.7743150450709444 -2.0249253091054005 3.1621663510456051 255 115 150 167.040009 43.2000008 2
0.5107771875209387 -0.18260210299520824 0.76938341754333117 255 222 228 639.360046 195.840012 2
0.51540587837290308 -0.0041017743650033356 0.7653826573803435 188 255 159 642.240051 285.120026 2
0.42087428303425123 -0.12544089627441762 0.80934947628213738 175 178 197 584.640015 228.960007 2
0.51568351316262584 -0.35504801954103393 0.77710065423381658 173 192 215 636.480042 112.320007 2
0.641015376636209 -0.37941680067109657 0.79840885006284901 215 255 178 694.080017 105.120003 2
0.41445416106170119 0.24373083304478219 0.79304580902725808 16 22 35 584.640015 406.080017 2
-1.5699350141297956 -2.0176369028817982 5.8408012925172716 199 211 224 280.800018 154.080002 2
0.42017755999867212 0.13714838732256629 0.81704309577686884 160 255 113 578.880066 352.512024 3
-1.7013809321038229 0.42779137273515805 4.2160867873135084 22 13 255 229.82402 328.320038 3
0.51226802638852043 -0.218611000721468 0.76933947156661131 255 203 217 639.360046 181.440018 3
-2.531317017004028 0.43969242411590409 4.3280668478183477 219 255 224 162.432022 324.864044 3
-1.7708687840636861 0.23420356456757721 3.9492207857339725 133 255 109 210.816025 311.040039 3
-1.6214204303707103 0.11435196212384827 3.9114709598759205 99 115 133 224.640015 298.944031 3
-1.1446804622056996 -0.5519855508787338 3.2343677433004108 255 93 108 247.104019 222.912018 3
-1.3320013937073396 -2.2215619691436865 6.5613775986598473 208 225 255 305.856018 158.976013 3
-1.2098301375870082 -0.1660364982732776 3.2600071070528545 61 81 102 240.192017 266.11203 3
-1.0382969380606797 -0.42718810042799527 3.3893798664982175 255 221 223 267.840027 238.46402 3
-0.62096446113211212 -0.13142200759633518 7.4501566376064208 86 107 128 352.512024 283.392029 3
-1.4813284584591644 -0.12626721384233563 1.659097500416943 255 151 154 39.7440033 259.200012 3
-1.8525950385114887 -1.7870135410169379 3.2896579415069103 255 140 169 167.616013 79.4880066 3
-1.6287977864903347 -1.2743712931668971 3.2586727207109845 255 189 204 191.808014 138.240021 3
-1.8030479856807444 -1.4808203910448214 3.2995514390088903 186 200 217 172.800018 114.048012 3
0.51023852642934531 -0.18356314962971387 0.76240399580486229 255 222 228 639.360046 195.264023 3
0.59377716061522268 -0.84751586490188979 4.4281526231061452 255 227 233 435.456055 214.272018 3
0.90487525730123952 -0.77441401509232077 3.0847191897208162 225 234 255 497.664062 191.808014 3
1.0399977707757462 -0.89049253767372016 3.0295479974423491 232 255 214 518.400024 176.256012 3
0.42412467373255747 -0.44293934953979464 0.7930555208970711 255 124 160 587.520081 74.3040085 3
0.60220392939751921 -0.49486869937756972 0.82623386592215575 120 156 199 660.096069 57.0240059 3
-0.20091825655029494 0.42115222959116216 0.96297786905169303 214 215 214 304.128021 452.736053 3
-0.64590404032571636 0.32313054445395467 0.8040107910830947 125 255 85 74.6496124 441.676849 4
-1.4994097579504055 0.1155639676776056 3.6629371144875176 255 97 114 223.948837 300.672028 4
-1.5262770834935941 0.29374159817032075 2.7194297395782798 205 180 255 165.888031 329.702454 4
-0.15847598128874663 0.41123785164643728 1.6659780928285057 78 88 110 348.364838 381.54245 4
-0.15122677521824013 0.28727068126000715 2.6726304255390416 155 255 115 358.732849 327.628845 4
-1.8945492436580453 -1.1004073336957212 3.2946552000619085 215 228 255 161.740829 159.667221 4
-1.6721387326835453 -0.14257107451598425 1.8657337992153638 255 151 154 39.398407 259.200043 4
0.60070343300344897 -0.034381433194634284 0.76858942029869315 118 130 147 684.288086 271.641632 4
0.62994910223879741 0.039978679263683786 0.75907150009063895 153 255 107 702.9505 308.966431 4
0.57282134560967102 -0.84603816144332677 4.4471380146604398 255 227 233 435.456055 213.580826 4
-1.0273585796669247 -0.55994448770882632 3.2911717939214364 255 226 227 267.494446 223.948837 4
-1.1761856355774811 -0.72843623931892965 3.3024652226865889 124 255 73 246.758438 205.286423 4
-1.2538852667483602 -1.1384648318308841 5.9702687525635874 239 255 224 306.892853 217.728027 4
-1.4283313075502506 -1.6906445233918501 6.1522801487726326 234 255 218 298.59845 184.55043 4
0.6347667571738721 -0.37748985524695156 0.78961990846131758 177 194 215 692.58252 105.753616 4
-1.8895917010445467 -1.7342883967464422 3.2774125881200247 255 151 177 163.814423 85.0176086 4
-1.8456862931915712 -2.1026083621687581 3.2798323768296074 255 114 150 167.961624 41.4720078 4
-1.5582274315580467 -0.19716081071634373 3.1597467756627133 242 243 245 192.844833 263.347229 4
-1.7466190700358961 -0.3414926272781883 3.2984649023978045 237 239 243 180.403229 248.832031 4
0.41197952144288719 0.17663921457073423 0.81816241184693284 25 30 37 580.608093 371.174438 4
-1.715733950134128 -0.72891955580191481 3.4108000554397537 231 234 238 192.844833 205.286423 4
-1.0112882560203627 -0.4216458262249283 3.3166487640572684 255 221 223 267.494446 240.537628 4
-1.9486487781628337 -0.50753899244959944 4.3413734573283644 255 114 128 211.507233 240.537628 4
0.24056099400165265 0.46837995327062454 1.7414769134393486 211 208 255 437.529663 391.910461 4
-1.0526232639680799 0.2540233594455924 3.6522234150329913 255 143 145 275.788849 317.260834 4
-1.160853395029287 -1.9171059561907366 5.7326336823676947 191 209 226 304.819244 159.667221 4
-1.0488084431545612 0.27939105725680413 1.2176763151677841 108 120 120 52.2547264 375.736359 5
-1.4346149353618376 0.25951463398833269 3.0210269539789949 255 169 169 199.065628 320.993317 5
-1.7436045484885287 -1.0692676907270036 3.2724222272440402 255 205 216 179.159058 161.740829 5
-1.8945492436580453 -1.1004073336957212 3.2946552000619085 216 228 255 161.740829 161.740829 5
-1.5509940925698409 -1.976655261315349 5.7688376185734382 207 224 255 281.180206 156.764175 5
-1.8345110385775021 -0.32596985330859529 3.223602156384695 239 240 243 164.229141 248.832031 5
0.52069146573412906 -0.25482896686876511 0.76578921526197474 210 226 255 641.986633 159.252502 5
0.51663507203746251 -0.35648555972785528 0.78776058133681648 192 215 255 637.01001 111.974419 5
0.64059942932420166 -0.35464182393363303 0.78778305424173078 255 181 197 699.218018 111.974419 5
-1.1762919243292496 -0.72468210708699077 3.30333338869701 126 255 75 246.343719 204.042267 5
0.5150299990514875 -0.22087187906367017 0.77362094513252 200 216 230 644.474976 179.159058 5
0.64226039287833636 0.040151264224143272 0.76052099210387447 152 255 104 706.682983 306.063416 5
-0.27027485608826973 0.31426649759969139 0.62650841962866854 39 52 65 216.483871 480.245819 5
-0.60997335488860172 0.29678610922412946 0.70584521191592331 198 200 198 52.2547264 445.409332 5
-0.72722452950793581 0.30038129471257874 0.84782132630887075 202 255 199 54.7430496 423.014465 5
0.3324505289036126 -0.58327457156030593 4.6278031936816282 150 168 255 413.061188 236.390427 5
-1.2335531493620562 -0.17367655838863164 3.3004889967588333 107 255 69 238.878754 266.250275 5
-0.98618710017211386 -0.40637170013831769 3.2447110470562395 223 255 221 266.250275 241.367081 5
-0.20379206622924628 0.41839446269989666 0.97350646876655844 255 215 215 303.575073 450.385986 5
0.23166941675540687 0.51840759644743017 1.1588191661416818 217 255 224 462.827576 462.827576 5
-1.3407620905740476 0.092884129339540517 3.2842612374504783 255 101 116 223.948837 298.59845 5
-0.082486673880739048 0.41167312685346374 2.526479663153089 220 220 218 368.271423 348.364838 5
0.5130415931817901 -0.18321002832887806 0.76203777971977749 228 236 255 641.986633 194.088989 5
-1.2310903662539419 -2.057306140896038 6.0840827105616579 226 255 191 306.063416 159.252502 5
-0.085613334942033603 0.4467170089592693 2.5819790828330969 255 223 223 367.276093 349.360199 6
0.52340297682519499 -0.22152866094021201 0.7721892061142972 216 230 255 641.986694 179.159073 6
-0.03636364559729377 0.47694855497057187 1.0021468604100967 58 73 255 373.248077 471.785553 6
-1.4812562460878986 -0.44135114019495814 3.3492425181921632 104 119 139 212.004898 241.864746 6
0.91644836459759682 -0.78141781621496054 3.2293553591895896 235 255 217 498.659424 194.088989 6
0.61540632137129925 -0.46405186785222341 0.79666516972933055 162 200 255 677.818481 62.705677 6
-0.68136297736624107 0.28397697930346832 0.7951286977078178 196 197 196 56.7337074 421.023834 6
-0.21911209413738564 0.4328425297076931 0.86036543627189377 255 182 191 283.668549 483.729492 6
-1.1592710614511827 -0.69866762183405484 3.2403991082903043 255 85 102 247.836716 206.032928 6
-1.494492777023233 -1.7566996006987428 6.3945172679370597 218 226 234 292.626495 182.145065 6
-0.63525826621931558 0.41487345709033085 0.76029735165454859 255 174 170 59.7196922 495.673431 6
-1.1089954687992924 -0.16746709113261812 2.9673794461378638 106 255 69 238.878769 265.752625 6
-1.1891729702694525 0.25458829886756806 4.1679717792662263 136 255 130 274.710571 313.528381 6
-0.02839031107512402 0.45884965226546182 1.0658296207866456 86 90 107 376.23407 453.869659 6
-0.21441412368331858 0.4287104601088505 1.0121494423490378 215 214 255 301.584442 450.883667 6
-0.063946856849016243 0.48121242184071089 1.3370192396414959 255 112 114 367.276093 432.967773 6
-0.49110112845587617 0.24643467144689293 1.4073321164555825 255 120 126 247.836716 352.346191 6
-0.46308680402182523 0.32140881138541144 0.9981095254457264 192 255 196 206.032928 406.093903 6
0.51584440957244482 -0.0072876722391361295 0.77323567129073445 173 192 255 641.986694 283.668549 6
-1.7436045484885287 -1.0692676907270036 3.2724222272440402 255 205 216 179.159073 161.243164 6
-1.8707810949464165 -1.8185011322064477 3.3090654087796598 255 139 168 167.215134 74.6496124 6
-1.160853395029287 -1.9171059561907366 5.7326336823676947 192 209 226 304.570435 161.243164 6
0.24217368784253801 0.43851616217541595 1.0165459710879083 226 224 255 469.39679 455.064056 7
-0.31800020760309566 0.0042094433479760787 3.983237330589132 255 85 107 347.568604 286.654541 7
-1.0671213564720503 -0.40314752705556089 3.4149340490133784 223 223 255 265.155426 243.656357 7
-1.8851873158906525 -0.33379392184572543 3.3299520005977019 240 241 244 168.409531 250.822708 7
-0.20991139569238859 0.42293892886183182 0.99906429889095127 209 211 209 300.987244 451.480896 7
-0.35209092880756088 0.36028512578634908 1.0468926869188111 222 219 255 257.989075 422.81543 7
1.1127734015505182 -0.26045338354390801 3.0753809153799856 185 255 115 530.310852 250.822708 7
0.49754549713392437 -0.17221650025247576 1.7135081463252644 156 255 113 494.479065 254.405899 7
-0.022062956923878829 0.44583480311586449 1.0453617614964499 85 89 106 376.23407 455.064056 7
0.08985933490184661 0.4311087074663601 0.92819515720000911 223 255 228 426.398621 469.39679 7
-0.61368663336304308 0.2892042590007044 1.7195945452545907 255 118 122 247.239532 351.151794 7
-0.18734745561057009 0.40708952199982884 1.4556787177799553 192 188 142 336.819061 394.149963 7
-2.4017769986313264 0.18334684141079521 3.8552176155750173 245 255 237 150.493622 300.987244 7
0.23647051491939508 0.43623398822127729 0.8987214782043127 220 221 219 480.146332 472.97998 7
0.66288779760198258 -0.37543041030756447 0.82867892758409889 255 185 199 695.137207 114.661812 7
0.51924463118204789 -0.22591462937393053 0.77025971509552704 216 230 255 641.389526 179.159088 7
-1.7644190570336322 -1.0781183494623876 3.2911850547328481 255 206 216 175.575897 161.243179 7
-1.3986166872637327 -2.1666856902195515 6.632898904116316 192 209 226 304.570435 161.243179 7
