ply
format ascii 1.0
comment Written with hapPLY (https://github.com/nmwsharp/happly)
element vertex 199
property double x
property double y
property double z
property uchar red
property uchar green
property uchar blue
property float ix
property float iy
property uchar octave
end_header
-0.43374747308616923 0.46331329331858995 1.660307180810277 255 92 124 283 394 0
0.44516148494289298 -0.59421935448348617 4.4874784624574531 196 205 255 421 235 0
-1.569477552058546 -0.38326785063297725 3.0576439620669706 255 239 241 187 241 0
-1.6829520611037427 -2.1649418827408478 3.2192351191263708 119 155 197 184 31 0
-0.075370243344437426 0.44594093927519263 1.4046983822522132 211 214 198 364 410 0
-1.5602120213297272 -1.2029814777304886 3.0390871748185 255 196 209 187 136 0
-0.67103607040390023 0.35453415910623687 1.2989178271065998 255 74 92 187 394 0
-0.10466920257726131 0.43751530703281544 0.85361415231277338 224 222 255 337 484 0
-0.52742503725677148 0.43712208357206134 0.83569824217730959 160 255 171 142 490 0
-1.7594085898503988 -0.035802668572140858 3.0868790696417259 246 255 244 166 283 0
-1.5852376401116981 -0.75729906262846158 3.4747096565665307 223 229 236 208 202 0
-1.277321507369146 -1.6341171588528132 5.9297839759888662 234 255 213 298.800018 181.200012 1
-1.2477985919167796 -2.2269856757440225 6.462291060014584 227 255 192 310.800018 154.800003 1
0.1435225862533982 -0.6538503638168951 4.5978731133406336 167 189 255 393.600006 232.800003 1
-1.5935226782125334 -0.6132633239859886 3.0888209892794158 255 230 234 187.200012 211.200012 1
-1.5552471084900064 -1.1403691685171062 3.0375035943929647 255 203 214 187.200012 145.200012 1
-1.5918524960873621 -1.299680616989727 3.0861427972376707 222 255 189 186 127.200005 1
-1.8158332597220523 -1.3309887373182283 3.1676268168528563 218 228 255 165.600006 127.200005 1
-1.6670023251074513 -1.5012381238079555 3.148605758186179 196 217 255 181.200012 105.600006 1
-1.6003598732894284 -1.5144196520576592 3.1045467843989645 255 174 194 187.200012 102.000008 1
-1.8035532621905359 -1.5331411855283108 3.140721125118263 255 176 194 163.200012 99.6000061 1
-1.6995084179484365 -2.0359873385774097 3.0564278502157309 255 120 155 171.600006 33.6000023 1
-1.5541842492770583 -0.91131374740466597 3.0380942473043016 217 224 233 188.400009 171.600006 1
-1.9335513357084908 -0.90377464614364678 3.3449689541425611 255 227 231 163.200012 183.600006 1
-1.597316705728117 -1.0719148097973767 3.1034258903559371 206 217 229 184.800003 157.200012 1
-2.2696624226336364 -0.28127735528330544 5.2987564423862104 255 110 126 219.600006 267.600006 1
0.50733996261668501 0.47260174218296003 2.0968373004967567 124 141 255 477.600006 373.200012 1
-0.073814380561788351 0.41082095767478455 1.2935612420229858 255 210 214 363.600006 409.200012 1
-0.84622340605316948 0.27247291262769424 3.17559899301986 255 161 165 279.600006 321.600006 1
-1.8123785012432339 -0.075486597404373162 3.2271130579262497 245 246 255 169.200012 279.600006 1
-1.6399023473084129 -0.23989974307876266 3.0984531244334517 242 244 245 180 259.200012 1
-1.582224667727838 0.28876761501080428 2.7798580908386548 218 205 255 165.600006 328.800018 1
-1.1570785673269364 -0.16462366698907924 3.2354373531311045 255 70 89 247.200012 267.600006 1
-0.89841813568596418 -0.41323793694569799 3.1491018023080981 226 226 255 273.600006 238.800003 1
-0.071231289879656101 -0.76495670050935249 5.6096398444775408 255 154 166 379.200012 235.200012 1
-1.6430106600587835 -1.6663285687100065 2.9586703771235188 173 206 255 169.200012 73.2000046 1
1.4594565428615767 -0.8613506850919801 2.8274982615595996 255 206 219 583.200012 172.800003 1
-0.1066129344164839 0.43861788785512068 0.85666374856190708 224 222 255 337.200012 483.600006 1
-0.11327364188221134 0.31331541016588027 0.84701607271612112 219 219 218 332.400024 430.800018 1
-1.3529279746057585 -1.916788062352933 5.3449942064926539 202 214 226 284.400024 151.200012 1
0.07468655642787736 0.4768855635723615 0.84235128340054866 255 39 58 419.040009 508.320007 2
-1.1765563315853886 -1.5340988523879473 5.3611730103840474 255 211 222 299.52002 180 2
-1.1381227636725697 -2.0525474028847603 5.9521716392857824 210 227 255 309.600006 155.520004 2
0.53183063539027475 0.50513622450399709 2.2452321197720035 255 140 146 475.200012 372.960022 2
-1.1271022783449141 -0.16204922238207453 3.1546824382601719 255 70 89 247.680008 267.839996 2
-1.5745901460870506 -0.84449908025114073 3.066831957795817 229 236 255 185.76001 182.880005 2
-1.7794759448293287 -0.84088613328867368 3.0973718955105651 236 255 227 162.720001 182.880005 2
-1.8208971486369165 -1.0365196940335322 3.165286100112374 209 219 230 164.160004 159.840012 2
-0.84820094365171794 0.55959236353033326 1.031577251065517 255 64 90 67.6800003 498.240021 2
0.048370868858156779 -0.24533087113512553 1.7057803863074992 164 185 255 393.120026 231.840012 2
-1.7713201201245519 -1.0715070240258076 3.0994635831827133 217 229 255 165.600006 154.080002 2
-1.8104889600263903 -1.3469763045276784 3.1848743801681962 218 227 255 165.600006 126.720001 2
-1.5002250523655221 0.42091746962847199 2.3462943201930919 81 100 113 136.800003 357.120026 2
0.37210017666294459 0.48952966526053293 0.93449492724561845 255 223 224 535.679993 488.160034 2
-1.8544910289961543 -0.49043641997611553 3.219259462097348 240 243 255 165.600006 228.960007 2
-0.65565387932810726 0.33285123426985935 1.3178076103285674 112 129 31 192.960007 384.480011 2
-1.570791200294626 0.11825434363816807 3.9225859148150182 255 101 118 231.840012 298.080017 2
-1.5314604927966542 0.28009621766098169 2.694525610008732 218 205 255 165.600006 328.320007 2
-0.099697072829664224 0.32665266934226972 2.8356909377115538 255 115 130 371.52002 329.76001 2
-1.7354065040096396 -0.075668870082086712 3.2668134624820491 244 245 246 180 279.360016 2
-1.1095754750215536 -0.65178855431948413 3.2100685129594138 119 139 255 253.440002 210.240005 2
-1.4336258890581113 -1.9802824155535919 5.8634999172247149 195 212 228 292.320007 158.400009 2
-1.7624433278099123 -1.7697423368072351 3.1505300326682022 174 206 255 169.920013 72 2
-1.7736455328425218 -2.0415514054635997 3.1221689912119999 156 197 255 165.600006 37.4400024 2
-1.8386510571536161 -1.4894465391934204 3.1989990581183698 197 207 221 164.160004 109.440002 2
-0.10069504252161976 0.42937193596993706 0.83032622694447467 221 223 221 336.960022 483.840027 2
-0.10520464591381318 0.30240618622891341 0.81412814841478665 255 221 222 331.200012 432.000031 2
-0.094964411134350613 0.41613377619369907 0.80828101545958364 217 216 255 341.279999 486.720032 2
-0.48007842639602272 0.40667513382204906 0.76970551119023134 162 255 172 142.560013 489.600006 2
-1.4698354605105339 -2.0082742234776516 5.6864436949722794 255 213 219 283.680023 151.200012 2
-0.40842239903742161 0.32143979932839822 0.49487666001504205 255 27 53 67.3920059 533.952026 3
0.48467124790186455 -0.58906985219288854 3.8931896894598479 232 236 242 428.544037 231.552017 3
-0.78235194094351601 0.25986079886548724 2.9967739735922492 131 144 255 281.664032 321.40802 3
-1.5339397799165946 0.32387565643602462 2.9884541760215653 189 255 168 186.624023 330.048035 3
-2.3369512591574333 0.42786006955069539 4.0407296088225646 218 205 255 165.888016 328.320038 3
-1.5562031411525203 0.12201837810756017 3.8490821392935457 121 139 255 229.82402 298.944031 3
-1.2847293208169321 -1.639295846495048 5.8687363657401361 233 255 210 298.944031 179.712021 3
-0.90806692363571617 -0.41137640954739974 3.1670923028110289 226 226 255 273.024017 238.46402 3
-0.075526025966248245 -0.75730822486961014 5.5086026221918862 164 255 158 378.432037 235.008026 3
-1.5638992881189608 -0.70330015236212307 3.181169969278538 255 231 234 195.264023 202.176025 3
-1.4513022282991104 -0.12367326047420399 1.5955756246378772 173 255 176 34.5600052 257.472015 3
-1.5308885997756723 -0.19990436709884501 3.1261912291211145 255 244 245 195.264023 264.384033 3
-1.4698354605105339 -2.0082742234776516 5.6864436949722794 255 212 219 283.392029 152.064011 3
-1.7536260846086713 -1.7789500982252786 3.1488731583715555 175 206 255 169.344009 70.8480072 3
-1.7424189961915486 -2.0911041328010658 3.1325991183856119 255 121 155 171.072021 32.8320045 3
-1.8048690916550396 -1.0967568339564953 3.1667476992533587 217 229 255 165.888016 153.792007 3
-1.6151235141853921 -1.5238412689212026 3.1126527650462448 215 255 174 186.624023 100.224007 3
1.2548655839327478 -0.73294148674184223 2.4184119997253957 232 255 209 582.33606 171.072021 3
1.0019044013952709 -0.76148593205833981 2.9274161134348877 219 227 236 516.672058 190.080017 3
-0.24828044449915931 0.44834015437972397 0.88451817245084352 210 255 214 278.208038 482.112061 3
-0.20531463874204836 0.33021725569357674 0.7817841511633592 222 221 255 281.664032 447.552032 3
-0.10296914638423837 0.42879560038539349 0.8383553467532523 255 220 221 335.232025 483.840057 3
-0.55816540953951521 0.46286547646050219 0.75243390114128683 46 74 70 100.224007 523.584045 3
-0.60080513286107995 0.41971035923245731 0.73346835701099922 255 53 83 67.3920059 509.76004 3
-1.5613079970906667 0.42858410543012559 3.9856125428369689 26 35 23 236.736023 330.048035 3
0.073678853404350875 0.47194070424739831 0.82580036436923154 72 255 42 418.176025 508.032043 3
0.50514962414036235 0.1100502529300669 0.65650467671918689 87 100 116 680.832092 352.512024 3
0.34762365984860844 0.46744102383413921 1.5147074214483363 156 173 255 473.472046 406.080048 3
-0.9658217821160533 0.29109933165513646 1.0996755836945724 79 85 255 45.6192055 387.763245 4
0.28704554352022937 -0.36195430484681823 3.4181260350534188 108 148 170 416.793671 246.758438 4
0.14402058759277137 -0.64807960020301447 4.5861802014584256 255 141 155 391.910461 232.243225 4
-0.66552482153830206 0.3791897739437422 2.8813452031986877 201 255 167 294.451233 337.996857 4
-0.87476862649816534 0.2536467506348476 3.2876489954945498 157 255 129 282.009644 321.408051 4
-0.095198298138580828 0.32933445886477936 2.9143761731658699 123 134 255 373.248047 329.702454 4
-0.025379921929587601 0.45018581230367083 1.8730393591422874 255 152 161 379.468842 381.54245 4
0.02312050223579476 0.48832051581671609 2.5544510837470584 255 220 220 391.910461 362.880066 4
-1.5025689573142316 0.13029368237542521 3.7318804409680491 137 255 104 230.169632 298.59845 4
-1.4698354605105339 -2.0082742234776516 5.6864436949722794 203 215 226 284.083252 153.446426 4
-1.6435495600564867 -1.0614848205818501 3.1300473368790147 230 255 207 182.476822 157.593628 4
-1.7825841032423062 -0.47802339458233012 3.1207469562303589 255 239 240 163.814423 228.096039 4
-1.7384826594277327 -1.7637125940774749 3.1223648907842452 206 255 148 170.035217 70.5024109 4
-1.782210489701531 -1.7208383443956301 3.1257522256455497 255 152 178 163.814423 76.7232132 4
-0.88311048065012798 -0.53335174782785466 3.0644553959412133 230 230 255 269.568024 221.875229 4
-0.44526627294550658 -0.077060560965626038 6.5461489877723507 134 255 92 358.732849 282.009644 4
-0.10624999027274296 0.43005147466518556 0.85100089990917227 219 218 255 333.84964 485.222473 4
0.99849487770496437 -0.72502443008106887 2.8364470535775621 221 228 236 516.326477 188.697632 4
-1.1696400570541425 -0.17006622396341259 3.2531873035012455 70 88 110 244.68483 265.420837 4
-0.90672625746772484 -0.4096748898014882 3.1643143879087643 255 225 227 271.641632 240.537628 4
-1.8053137005374444 -0.49167744387086132 4.1058230202085264 137 157 255 213.580826 240.537628 4
0.50243711733702534 0.24933589327884631 0.6522289512877355 96 114 144 680.140869 435.456055 4
0.073870083104838669 0.48766005115531386 0.85714036007203243 72 255 42 418.867249 508.032074 4
0.51042935846559889 0.18174102240982754 0.66300544694695573 114 130 155 680.140869 393.98407 4
0.50946368489641858 0.14466932016004197 0.66680712676555998 113 131 160 680.140869 373.248047 4
0.3282577269355581 0.44385583566402731 1.4474748877389225 144 155 173 472.780853 406.425659 4
0.4819087451753038 0.45964240615468166 2.058242715409984 115 125 141 472.780853 373.248047 4
-0.36600242017733509 0.41932536115137331 0.68472269992248136 155 255 132 174.182419 522.547302 4
-1.9021849763322844 0.17180086567402617 3.1863658452497465 231 238 255 153.446426 304.819244 4
-1.0993744551656999 -1.9511811900798699 5.7203173644648215 193 210 227 308.966431 155.52002 4
-1.3571917222772458 0.10564524631754046 3.3873130372232962 105 122 140 228.925476 298.59845 5
-1.7460892934914094 -0.32039977895499838 3.0979034145985378 244 255 240 166.717468 248.832031 5
-0.23630899559365171 0.37310324909110626 0.89491020723156467 255 221 221 283.668518 447.897675 5
-1.4553843585007837 -1.9699566764674556 5.6300551916774362 255 213 220 283.668518 154.275864 5
-1.4917698156184325 -0.90998500869045984 2.6349608751743969 208 218 230 164.229141 156.764175 5
-0.13448362329528041 0.47702010099325187 0.77673993271355801 188 190 196 320.993317 525.035583 5
-0.88208619076810946 -0.5354602579959985 3.0527678701220982 228 230 229 268.738586 221.46051 5
-0.65338256223057045 -0.87487927764963391 3.0608134831989098 233 255 210 298.59845 179.159058 5
0.51244672063001739 0.21380335326988101 0.65637441329902169 142 255 105 686.776428 415.5495 5
0.33878376672536747 0.47762836654293345 1.4153693404655594 215 212 212 480.245819 418.037811 5
0.12208007300544965 0.62239739081267431 1.6675924043475363 221 219 255 413.061188 430.479431 5
-0.63102846469768381 0.30976137014222893 0.71604986860814335 211 206 255 49.766407 450.385986 5
0.53500212983520201 0.41224964595763919 0.67066001252387575 1 255 0 694.241394 525.035583 5
0.49506594355036249 0.31115794002602287 0.62693921670047414 13 22 255 689.264709 475.269196 5
-1.1475886904956121 -0.16858543290719663 3.1861849296378204 108 255 66 246.343719 266.250275 5
-0.89391813782217033 -0.39797208341981272 3.1165217247257098 255 225 227 271.226929 238.878754 5
0.34122135156396571 0.46000293537116632 0.80098133518738668 221 219 255 549.918823 507.61734 5
0.34785598878168411 0.45139992181154931 0.87413130337498179 222 255 225 534.988892 485.222473 5
0.34006878942211816 0.4705585077434391 1.577391884390789 149 167 255 465.315918 400.619568 5
-2.4523708982691694 0.33368818939464906 4.1982483905841121 168 142 141 164.229141 318.505005 5
-0.41855560084592947 0.43314857739190515 1.5801776287134537 128 138 255 281.180206 390.66629 5
-0.91581470826272637 0.25014762674822622 3.4674254569239471 116 132 255 281.180206 318.505005 5
-1.0993744551656999 -1.9511811900798699 5.7203173644648215 255 194 211 311.040039 156.764175 5
-0.11436827302280661 0.43794357985572535 0.87746119259533129 224 222 255 337.41626 483.729492 6
1.0054682721324799 -0.73120051010401921 2.8505091836885859 217 227 236 516.575317 194.088989 6
0.34083253374612354 0.47419035095589979 1.3902442268403501 197 199 255 477.757538 418.037842 6
0.53224239306887577 -0.18293382795808497 0.65184794113043942 191 255 170 698.720398 179.159073 6
0.55801155699016425 0.37110450467853034 0.64970134687995906 255 36 39 707.678345 510.603363 6
0.44568301044035441 0.39374540337787151 0.65593023779505777 255 18 21 639.000671 516.575317 6
0.53371751446533966 -0.39067533704915131 0.68785070412041804 206 255 139 686.776428 68.6776428 6
-1.0393491899373122 -0.1641903581824028 2.8920153773303028 70 88 110 244.850739 265.752625 6
-1.0705473537940513 -0.51983895322535856 3.4080800537312079 228 255 224 262.766632 229.920807 6
0.3467493627011744 0.46981008616157466 0.81953806200313073 221 219 255 549.421143 507.617371 6
0.34391430238776655 0.46039874193142161 0.91492694012932052 255 224 224 531.505249 486.715485 6
-0.59781287973712671 0.42145481887500758 0.72578366385745241 74 72 255 65.691658 510.603363 6
0.073119377701382549 0.47051229688049745 0.82783763466876192 58 69 255 421.023834 510.603363 6
0.49591312488790928 0.26048131347383729 1.0900635513732053 28 255 13 558.379089 379.220032 6
0.31781303672253458 0.42749001028610356 1.4160609425839352 144 162 255 465.813599 403.10791 6
-0.59104233949346097 0.39281312329365142 1.2018439370992724 150 255 117 194.088989 415.051849 6
0.39086611804836691 -0.52812727037883922 3.415885527755977 239 255 221 426.995789 229.920807 6
0.43335802391596057 -0.57832256716241726 4.4418266440550243 193 255 148 418.037842 238.878769 6
-0.89638625002800332 0.34063911945917763 1.2134865987135257 202 202 255 101.523476 397.135956 6
-0.51836599755901669 0.29767529313225977 1.5967301040708781 205 255 205 262.766632 355.332153 6
-1.4071396945472205 0.13246291501621124 3.4847524401558703 140 255 108 226.93483 298.59845 6
-0.0028884076077626553 0.43889759022239405 2.543849452040424 222 255 222 382.206024 355.332153 6
0.058559537717039367 0.45015475914683539 1.0199802383027166 255 113 119 403.10791 456.855652 6
0.58996188618493872 -0.72499774502838843 4.5017257606879229 255 232 237 435.953735 226.93483 6
-1.693114622048185 -1.0829243744850465 3.1902307975684163 230 255 207 182.145065 158.257187 6
-0.96557548710025065 -1.7230996008281234 5.1181563998388224 228 255 196 310.542389 158.257187 6
-1.4533839699480606 -0.44490015020062901 3.3535765501365153 150 255 124 214.990891 241.864746 6
0.051712690775156167 0.46876723095577649 1.111965089644334 123 143 255 401.316345 455.064056 7
0.33303782873242305 0.466275147476788 1.3428121248899969 196 193 195 476.563141 419.232239 7
-0.28576520946832251 0.022122177430001111 4.189258907593354 133 255 91 354.734985 286.654541 7
-0.19106039078149251 0.3208118715231329 0.74789338960112306 219 255 219 286.654541 455.064056 7
-0.077534327546660009 0.40667643014869548 1.2876941255545613 161 255 198 358.318176 404.899536 7
-0.94679637083143708 -0.38797584762992798 3.222539515068839 226 227 227 268.738617 240.073166 7
0.46059236921433411 -0.6351134164061224 4.8749083845913068 79 126 149 412.065887 236.48999 7
0.49134910535855603 0.26056643017330416 1.0747959999300405 28 255 13 558.976318 379.817261 7
-1.0053290668444208 -0.44808209038024321 2.8844216449251037 166 255 109 254.405899 222.157257 7
-1.0958678464329226 -0.95742593474233795 3.926284213780276 226 227 227 272.321808 193.491806 7
-1.0467450714182367 -0.68515851026035468 3.0744452523261612 134 255 86 250.822708 200.658173 7
-0.10160954323616744 0.33311156726771596 3.1504943891963695 202 212 215 372.650879 336.819061 7
-1.5610530030654575 0.32731993417288324 2.002430782959995 163 255 132 78.8299942 347.568604 7
-0.018024138359739705 0.50964579771964291 2.0055650880026961 255 149 157 379.817261 383.400421 7
-0.4537560720167626 0.2747445869427963 1.4276202804301468 183 192 255 261.572266 354.734985 7
-2.1900894690077046 0.17966358023141277 3.5596984527141471 246 255 239 150.493622 300.987244 7
0.50450712043758994 0.24766396543515112 0.64155086111495718 94 111 142 680.804504 437.148163 7
1.014365109038166 -0.7511546908208383 2.985933189705686 255 218 228 515.978149 193.491806 7
-1.7584127608130689 -1.8021789681802458 3.1484937490059086 147 174 206 168.409531 68.080452 7
-1.2795753004301429 -2.1388806026334608 6.4140267492260952 196 212 228 308.153625 157.659988 7
-1.7446133651413729 -0.47994237075651147 3.9805229712517498 156 255 127 214.990891 243.656357 7
