ply
format ascii 1.0
comment Written with hapPLY (https://github.com/nmwsharp/happly)
element vertex 146
property double x
property double y
property double z
property uchar red
property uchar green
property uchar blue
property float ix
property float iy
property uchar octave
end_header
0.51751171462631906 -0.70403785140847064 4.4248536694164899 176 255 135 430 226 0
-0.77138691943131787 -1.4769447986860849 4.7064967886757723 232 255 202 322 166 0
-1.2160172848760311 -1.0291730610527499 2.2451860550021907 198 214 255 177 112 0
0.17803422057669738 0.39437392497730339 0.6735373959765405 255 134 147 487.200012 513.600037 1
-1.4535189780395732 -0.27979347447514868 2.3169282331819931 241 243 245 144 240.000015 1
-1.2170355460418771 -1.194085443874334 2.2524603306465321 157 184 212 176.400009 85.2000046 1
-1.1290230108966783 0.34117368304575796 1.7970071824324543 228 227 255 145.200012 361.200012 1
2.4507291670793165 -0.074416512469923035 3.02837960889347 136 156 255 693.600037 279.600006 1
-1.1701991215741923 -0.4660806541076572 2.1595734445113735 255 232 235 175.200012 205.200012 1
-1.254342968034095 -0.8170534015371731 2.3194670179238996 229 255 209 174 151.200012 1
-1.5480748010347836 -1.1202634562922544 2.4558562549658074 226 255 208 142.800003 111.600006 1
1.4093247569687815 -0.70421126089573682 2.0476306532480097 217 230 255 649.200012 156 1
0.32567861340029536 -0.68974554835705149 4.635938534491185 255 161 173 411.600006 229.200012 1
1.7852136989237255 -0.62163425414601725 4.6979576749052852 255 237 241 531.600037 238.800003 1
1.3761688160850991 -0.84893512300624041 2.0224723577207802 210 226 255 645.600037 127.200005 1
-0.35256350993964602 0.50743205121353818 2.2959081105690702 234 235 255 325.440002 371.52002 2
-1.4232794835037104 -0.42094927286641037 2.2610518479835795 238 242 255 141.12001 217.440002 2
1.3445548721292635 0.50516616646165668 1.8687673655416237 130 255 130 658.080017 393.120026 2
-0.76277851643045569 0.46221039486976706 0.82237661285404862 80 87 106 28.8000011 502.560028 2
0.83946461828864249 -0.55159282489760308 3.873095606925741 245 246 255 465.120026 231.840012 2
-1.2985072973678609 0.313812258146556 1.9870501566654779 222 213 197 132.480011 345.600006 2
-1.1046980979859455 0.34101297702355021 2.1258674685238232 30 255 53 182.880005 349.920013 2
-0.67825908136015212 -0.56959907522747799 2.2161781167051506 232 232 232 264.960022 191.520004 2
-1.1930586518082942 -0.70124997280090384 2.5827324219083376 255 83 111 207.360016 185.76001 2
-1.2895345128109281 -0.13492358281315375 3.0626093015095606 64 83 105 224.640015 273.600006 2
-1.1880281656402532 -0.46626668105479663 2.158312935549608 255 232 235 175.680008 204.480011 2
-1.2234814724370531 -0.15605181085192188 2.2207192453380484 255 244 245 171.360001 259.200012 2
-1.4251833615970448 -0.22684671998346956 2.2770192517537025 243 245 255 141.12001 247.680008 2
-1.0441525969004064 -1.9251611761602883 4.6747990614425694 176 201 223 296.640015 129.600006 2
-1.3641733568611869 -1.3633468761648144 2.1534299443484879 167 204 255 141.12001 46.0800018 2
-1.1987420354423066 -0.78852237850406204 2.1916688973762124 229 255 209 174.240005 151.200012 2
-1.1973691138780165 -0.95395552339907796 2.1722784371959754 215 227 255 169.920013 120.960007 2
-0.94622122505387063 0.28973048810030605 1.5026381002681504 223 225 224 144 361.440002 2
0.24133097825760119 0.81247205949779355 16.702842320386196 115 134 164 388.800018 308.160004 2
1.4503023268248714 -0.73212571720599628 2.1252914927522975 201 215 230 648 154.080002 2
0.80558482686344512 -0.6040626623551606 3.3546283244965034 238 243 255 473.472046 219.456024 3
-1.4842473681084365 -0.68281314142902338 2.3701309378583542 255 236 237 143.424011 177.984024 3
-0.48547186401256592 0.39156395258084187 2.1442221165183324 172 255 147 298.944031 355.968048 3
0.98779198663173873 0.52142117264681387 1.1236789268592244 191 255 194 722.304077 468.288055 3
0.88452306527585278 0.50027556170707144 1.0857609345062307 219 219 219 696.384094 464.832031 3
-0.80699149497831213 0.36811575648978201 1.6088382789303428 192 204 255 193.536011 374.976044 3
0.009861887407428771 0.50055088152408911 1.9915895820966494 219 219 255 385.344025 385.344025 3
-1.290160820903544 0.30185642286901054 2.92941567499442 81 99 255 217.728027 328.320038 3
-0.54948453775681161 -0.27097249214278113 2.3639522952320355 235 239 255 293.76004 243.648026 3
-1.2169883053472446 -0.39926820795802809 2.7555140259583917 128 255 83 214.272018 233.280029 3
-1.1924037582275631 -0.70081557292946306 2.1714415122177178 232 255 213 174.528015 165.888016 3
-1.1636835646084864 -1.1402235894631896 2.1302867622605377 212 255 159 174.528015 84.6720047 3
-1.2358961853690338 -1.4708377032721744 2.2419156830789269 201 255 128 174.528015 36.288002 3
-1.4090646836616867 -0.79349906105333878 2.227298866809011 255 211 220 139.968018 150.336014 3
-1.373260423182177 -1.0076871708884019 2.1871623155565292 255 209 217 143.424011 112.320007 3
-0.75146641329258079 0.4980796107825895 0.82393908693158924 57 61 77 32.8320045 518.400024 3
-0.95396915647939018 0.52684463131766979 2.8415288173750994 255 65 64 255.744019 357.696045 3
1.3134830395748192 0.49045993198167009 1.8053541986374597 147 140 255 665.28009 392.256042 3
-0.54283909352556892 0.40649426676391498 2.3562598383715159 173 255 146 298.59845 356.659241 4
0.15701633379294777 0.38562367153307026 1.7290541285977086 206 218 216 416.793671 371.174438 4
-0.92051958881873119 0.33934609549410943 1.9160533314691808 255 17 19 199.065628 354.585663 4
-1.032895079031531 0.3706363236352696 1.8947402192082605 216 255 218 174.182419 362.880066 4
0.8501446041676356 0.46201104234172263 3.2520946577698444 255 137 146 483.148865 337.996857 4
-0.72697927718827771 -1.4292590096849374 4.4798058325480605 255 201 218 319.334442 165.888031 4
-0.88781334950766144 -0.12372059298650129 2.6648752771115936 203 204 255 257.126434 269.568024 4
-1.614029538923913 -0.17353786606522431 3.8418363938848987 255 73 93 223.948837 273.71524 4
-1.4831892253156904 -0.5222439319392389 2.3849503937983165 255 236 237 143.078415 203.21283 4
-1.1623806198434607 -0.62029396371153467 2.1204922992920237 235 255 225 174.182419 178.32962 4
-1.4222693008696004 -0.65581227660397756 2.270636937318494 255 236 238 143.078415 178.32962 4
-1.1136508654223691 -0.16258323953104925 2.0053196777769551 245 245 247 172.108826 261.273651 4
-1.313863676750016 -0.21537077468298227 2.1071185671342532 255 241 243 143.078415 248.832031 4
-0.73111912795230882 -1.9153521635609696 4.9162478582263347 255 182 204 327.628845 136.85762 4
-1.4116388205384243 -1.4078778649529475 2.2433757859421473 166 203 255 141.004822 45.6192055 4
-1.20575394320409 -1.0100070347507963 2.1991501311442416 202 211 224 172.108826 111.974419 4
0.9245364495018964 -0.61301278919314706 3.0444845187491572 234 241 255 497.664062 209.433624 4
0.32387427326904272 -0.69156482147355935 4.5878040264880404 160 171 167 412.646454 230.169632 4
1.5618480954223957 -0.85239312259492839 1.9142166638064171 215 221 230 696.729675 118.195213 4
-1.1561356022832339 0.17581978552602784 2.9359029164149311 45 63 90 228.096039 311.040039 4
-0.4623117862506998 0.3324815856003806 2.2996874815749009 228 255 218 306.892853 344.217651 4
-0.7331760805022669 0.38716223648322656 2.0293846639482132 166 255 162 242.611237 360.806458 4
-1.1858974584500266 0.37774624552993302 1.9330627277658827 177 190 255 149.299225 367.027252 4
0.60155054146118436 0.49497665666502821 1.174317385273226 103 255 107 578.534485 447.897675 4
1.3078129038327138 0.48860142137863627 1.7978442892678217 148 141 255 665.625671 393.98407 4
-0.9687047511963911 -1.7397192412320814 4.2279633742126377 224 255 177 294.451233 130.636826 4
1.0554954529475871 0.22259698886278489 2.688115900753262 136 255 104 534.988892 318.505005 5
0.24347902245813957 0.29447191020586105 1.4959381986456863 147 158 255 445.409332 363.294769 5
0.81486329045284256 0.33708967417340568 2.4659787637142863 50 60 78 512.593994 338.41156 5
-0.76883103283355814 -2.0127376126474159 5.139504634980895 182 204 224 328.458282 136.85762 5
-1.2265378734796935 -0.26841535287881707 2.2105275358335175 255 241 243 171.694107 241.367081 5
1.0702508533924928 -0.78055630623039041 3.0810135746031939 230 238 255 517.570618 194.088989 5
-1.3342432550933037 -0.85090643889908124 2.1033614502960369 255 210 218 139.345947 134.369293 5
-0.50963344200676008 -0.48085837675280341 2.1933428393035954 232 239 255 293.621796 204.042267 5
-0.7616189962083455 -0.94031392186880103 3.0728281856719608 233 255 209 286.15683 166.717468 5
0.89646238361731378 0.49721925132533284 1.0526264563367662 217 215 255 709.171326 470.292542 5
-0.72828914606573569 -0.10461359172371459 2.2394569549370011 222 223 223 256.296997 266.250275 5
-1.4057495116616123 -0.42882797436278974 3.186183962434054 105 128 255 213.995544 233.902115 5
-0.64816600051363515 0.48937883806698451 0.81179075216772167 19 30 3 72.161293 522.547302 5
0.52005327302838289 -0.71441540470073184 4.4832529751107453 255 138 160 427.991089 228.925476 5
-1.2875198787236513 0.31342737284252692 1.9621532266967039 255 222 214 131.880981 345.876526 5
0.80975666647515687 0.70937356763094894 2.4098217640207471 205 255 201 510.105682 398.131256 5
1.0767210144999071 0.45418035875882851 2.8267052066142613 75 67 58 532.500549 348.364838 5
16.100434110957909 -18.959357448664448 33.084462072118349 255 142 176 567.337036 72.161293 5
-1.0935597818036915 -1.9555660099755547 4.822811578934461 223 255 177 298.59845 131.880981 5
1.9038126067783867 -0.1287101793271655 4.7635652731648506 255 113 132 543.449219 274.710571 6
-1.1670550591039128 0.36720055363263593 1.887060508601508 177 190 255 149.299225 367.276093 6
-1.1135877302526915 0.37999508075097055 2.0404082728511912 210 211 255 173.187103 361.304138 6
-0.35045764002755408 0.4807319601389845 2.3148200718029539 234 235 255 325.472321 370.262085 6
-0.33595254127406737 0.42028111307321214 2.0621584566486133 255 204 210 319.500336 364.290131 6
-0.81017438968271893 0.35691893998119573 1.6135276325731347 173 255 207 194.088989 367.276093 6
-0.7430222186891795 -1.4253005407383905 4.4500272142094621 255 201 217 319.500336 164.229156 6
-0.50152179832919552 -0.48197995348195888 2.1669179330096635 225 232 239 292.626495 203.046951 6
-0.68121682138037709 -0.65880344893074527 2.245156256459071 210 211 255 265.752625 176.173096 6
-0.38132884835547509 0.49192860718396964 1.6050810039546963 98 125 147 292.626495 406.093903 6
-0.89996937606418648 0.48137476634860593 2.7674190928507061 59 59 59 256.794678 358.318146 6
-0.99395719370769253 0.25435819549855576 2.2290127240770792 113 255 81 214.990891 328.458313 6
-1.1304853946587947 -0.13798787126527579 2.2080309710169952 132 149 255 185.131042 262.766632 6
0.23137136593323193 -0.53463890086875088 4.5932734148485093 131 141 150 400.121918 244.850739 6
-0.46693244701081982 0.33849903194916109 2.3833536489625384 255 225 227 307.556396 343.388214 6
0.85130065195990934 0.48681885068262892 1.0247076182722408 219 255 220 698.720398 465.813599 6
1.5124499826326914 -0.79251153076597236 1.8736074213350311 255 214 221 695.734375 119.439384 6
-0.76233575097658912 -0.1151406354022142 2.2954436016413955 214 215 215 256.794678 268.738617 6
-0.52206939619918602 -0.35400039481749118 2.2838673012607624 229 236 243 292.626495 229.920807 6
1.2607699842528126 0.46512179641717266 1.7045805404339482 138 255 139 662.88855 394.149963 6
1.0510564196496635 0.21110634730192421 2.7100304821322814 255 106 118 531.505249 319.500336 6
1.7606527663468854 -0.64369713591569255 4.7491646799994429 255 238 241 531.505249 235.892776 6
-1.1954455994345277 0.17342300754330919 3.003595366745845 61 88 255 229.920807 313.528381 6
0.40224568618027234 0.50788476243369907 1.5817735456400137 229 229 226 480.7435 412.065857 6
0.27401281939541544 0.41522954685926639 1.4770201140633734 222 222 219 456.855652 400.121918 6
-0.80693571327673741 -1.4880041261270598 4.6354962982084142 231 255 201 318.903168 164.826355 7
-0.8467103302621406 -2.0260067925432472 5.3565775549446659 226 255 185 326.069519 139.74408 7
14.217328548919253 -21.808128647580961 38.579030542466995 255 150 179 523.144531 75.2468109 7
0.94216595443077877 -0.5988376497832083 3.1086830948209832 240 255 226 498.062256 207.824539 7
-1.2769412590637157 -0.17117328408080501 2.4690926098211836 140 255 112 186.325439 261.572266 7
-1.4415040501660386 -0.46555964048289622 3.2666429460305668 255 90 111 211.407715 236.48999 7
-1.3581823685389773 -0.25973009838725286 2.198828343057885 255 240 242 143.327271 243.656357 7
1.3921331971394104 -0.68495530944581173 2.0013874466872354 255 204 217 659.30542 157.659988 7
1.5028777287003854 -0.78187228721750146 1.843782463668616 255 215 221 695.137207 118.244995 7
-0.472254723234657 0.39426934824822923 2.1466526238857631 149 158 174 300.987244 358.318176 7
-0.87142536010530414 0.4582283743211516 2.6790436583173163 61 59 255 257.989075 358.318176 7
-0.68827700359206156 -0.11543863180079095 2.0829904853722896 214 255 213 254.405899 268.738617 7
0.81242493189574372 -0.52349713076365889 3.4654297628612607 243 244 246 472.97998 232.906799 7
0.13739283413437398 0.18057864250796188 4.8676885919399311 145 255 101 390.566803 304.570435 7
1.2275166765184593 0.45692914409947299 1.7322341152856087 138 255 139 662.888611 394.149963 7
-1.2392774193083058 0.39749543026511575 2.2712619539767531 255 219 216 171.992722 361.901337 7
1.1644763367077093 0.35064023734890887 1.8597171237527457 255 42 49 623.473572 361.901337 7
-0.49437760138038422 0.1939009285327486 2.1717314103371241 133 152 255 297.404083 322.486359 7
-1.0698763960616082 0.17958891794257037 2.695711610918643 61 88 255 229.323624 311.736786 7
1.0646596557546584 0.20890280615472367 2.8016426346839447 143 255 120 530.310852 318.903168 7
0.70842524827201991 0.38140665522220213 2.6292315809482378 255 136 145 483.729523 336.819061 7
-1.0786795318901752 -1.9158517594896987 4.7702173033489874 202 224 255 297.404083 132.577713 7
-1.3904730334994375 -1.0255688842873261 2.2309308985216996 255 210 217 143.327271 114.661812 7
