ply
format ascii 1.0
comment Written with hapPLY (https://github.com/nmwsharp/happly)
element vertex 131
property double x
property double y
property double z
property uchar red
property uchar green
property uchar blue
property float ix
property float iy
property uchar octave
end_header
0.07564021275942498 0.40930366152566972 0.84563944486615061 47 255 38 418 475 0
-0.47556422077394833 0.42614288549133772 0.86423454684634748 121 125 130 172 478 0
0.0082767158344238256 0.30437627771072556 0.44747272491482604 255 34 49 391 550 0
0.29655023881388232 0.42516984995259016 0.72442505497366527 184 255 186 542 515 0
-0.22562174132823587 0.42057013593866432 0.61582221688819716 255 48 66 243 550 0
0.54063758676061946 -0.01248899893671452 0.98834392018897832 255 23 32 595 283 0
0.0084377458708117525 0.26203510273968383 0.44502800287604971 255 42 48 391 514 0
-0.54276549003318386 -0.55789338518636056 1.4705609084690521 137 164 196 244 142 0
0.66705312344028977 -0.070023530921652116 0.92239969126013654 235 237 255 661 259 0
-0.36847002406463791 0.28706074129966741 1.1939649596615882 166 170 255 265 382 0
0.54153623474524148 0.35295457998612983 0.98796698643003478 255 206 206 595 424 0
0.37995580030636711 0.40848497683024559 1.4649857171136407 138 139 141 484 397 0
-0.53419055761364531 0.028291029404867028 0.73299665538950898 255 197 180 103.200005 303.600006 1
-0.55198178183330715 0.030703536994049194 0.71492263585458282 187 199 255 85.2000046 303.600006 1
0.50070607603804329 0.37027743484502329 1.0872586001581352 197 196 255 561.600037 418.800018 1
0.53130318679164668 -0.12109301669872119 0.98760949230634743 255 48 60 591.600037 241.200012 1
-0.16164715198018464 0.39452231791268855 0.61345070597420814 255 149 152 283.200012 534 1
0.21895160202181982 0.20502845495738123 2.311192074022653 63 79 255 417.600006 321.600006 1
-0.026536872567632735 0.19415854121369586 0.78827887694711041 129 142 255 373.200012 384 1
0.25477660402468899 0.37442349415870574 1.2103690626005861 255 214 215 463.200012 405.600006 1
0.19497240188093762 0.45844982393453088 1.4807907036138579 255 68 85 435.600006 405.600006 1
0.29868641597977208 0.4436983022752814 1.5959942657482176 124 255 76 454.800018 393.600006 1
0.022161982756126325 0.21269840823436056 0.72203353170596785 139 255 163 394.800018 399.600006 1
-0.54429552884304144 -0.55942200585911117 1.4705478401351986 255 137 163 243.600006 141.600006 1
0.50023000462637779 -0.12818391410812688 1.6121511401307611 72 83 93 504.000031 255.600006 1
0.52834477586611595 -0.15581552952743738 1.666169928145933 49 58 255 505.200012 252.000015 1
-0.1843571657492547 0.34124843984881781 0.61011858847194167 255 174 162 267.600006 504.000031 1
-0.35959619635624607 0.13426994753786786 1.4742494422357935 169 171 255 289.200012 321.600006 1
0.29710290491130098 0.42802562212083656 0.72865812769157567 185 255 186 542.400024 513.600037 1
0.076969254720729158 0.43165123198607647 0.88860682160988846 38 50 255 417.600006 475.200012 2
0.17474610887947006 0.34754099064529576 2.0456416968406348 193 186 255 417.600006 355.680023 2
0.63744501440728796 0.2356684936528409 0.93035772440228059 58 72 89 648 384.480011 2
0.58387104941814916 0.23823944255927523 0.93105071591898314 32 255 13 626.400024 385.920013 2
0.095251275994269899 0.43351866656285676 0.67597418425892852 53 63 82 440.640015 534.240051 2
-0.23068102099338245 0.42503246589879767 0.62543818227152514 255 96 104 243.360016 547.200012 2
-0.21817375701410341 0.35673479761226412 0.59095027762589525 158 161 162 240.480011 519.840027 2
0.52487970440044918 0.38452144070017674 2.8061629668633881 255 69 83 455.040009 339.840027 2
0.022539803654861718 0.21194110793438589 0.72204480184577957 143 255 162 394.560028 401.76001 2
-0.44030807735750521 -0.29680667508287562 1.3352705538157632 255 192 205 259.200012 201.600006 2
-0.29023617008732006 -0.37355663176033349 1.4672057495579178 86 118 255 309.600006 190.080002 2
-0.30206454869911048 -0.50573849390722292 1.2596755217291038 155 191 255 289.440002 133.919998 2
0.470272321115426 -0.14904212189590471 0.53893204152927709 216 223 255 717.120056 184.320007 2
0.66987214067766709 -0.061974777704774914 0.94588551058782389 235 236 238 656.640015 263.52002 2
0.51531378992885735 -0.15236451770006659 1.0981781888615425 143 154 255 561.600037 234.720016 2
-0.47289023947175945 0.42385408142117587 0.85958419474263337 121 125 130 172.800003 478.080017 2
-0.49963214053345417 0.37230334830437661 0.82462061467535208 88 255 56 154.080002 460.800018 2
0.4559512261112052 0.46416602361454429 0.88262333803974102 56 74 104 580.320007 489.600006 2
0.48261802126282011 0.38399132445471834 1.0371960831315346 205 201 255 561.600037 429.120026 2
0.29001052345446066 0.41154882212030258 0.69928293546602305 184 255 186 542.880005 514.080017 2
0.68344468534562841 0.32964089576172434 0.96554585547892002 153 154 152 656.640015 417.600006 2
0.37225446947632157 0.40123770956381011 1.4373266262050903 255 104 105 483.840027 396.000031 2
0.52755790165869221 0.41381510813508476 1.7706950723426789 119 129 255 501.120026 378.720001 2
-0.53873064313921848 -0.51928097385393512 1.398542900295511 255 148 170 235.008026 145.152008 3
0.2690537698596896 0.38036300779707954 3.173929338660979 255 35 48 419.904053 333.504028 3
-0.12624157996086904 0.24231354378592551 0.66245145653417148 158 255 182 314.496033 426.81604 3
-0.27213915012822409 -0.36167025487387211 1.4110749213214799 78 107 255 309.312042 188.35202 3
0.51792265183148056 -0.15305527109074038 1.1006842911101948 143 154 255 561.600037 235.008026 3
0.4830991180426818 -0.10446296631644192 1.0422484489510371 152 255 123 558.144043 248.832031 3
-0.058789809864487008 0.25888039031952881 0.51289950401088735 125 255 92 342.144043 482.112061 3
-0.20449476581068377 0.41492216119787506 0.64178614229530584 153 156 158 260.92804 535.680054 3
-0.31182867965753736 0.25229209116291573 1.0611388194225355 255 152 165 267.840027 380.160034 3
-0.48690852248299177 0.2556017548751241 0.83301247834682124 98 255 64 162.432022 406.080048 3
0.07712502111705706 0.4043410065553994 0.83457252533643533 47 255 38 418.176025 475.200043 3
0.28776530377967591 0.43351377978667283 0.72057354089691827 255 186 188 539.136047 518.400024 3
0.68093562487300696 0.05662232374076398 0.96292915239279975 106 255 177 658.368042 312.768036 3
0.57377344579890233 0.29426557672699138 0.90904167918312051 63 61 255 625.536072 411.264038 3
-0.51410821046722532 0.027415577350314704 0.70898536928180378 255 205 194 103.680016 302.745636 4
-0.16681957684139148 0.26581038432908238 0.67089257480676578 109 255 102 290.304047 439.603271 4
0.47628043766525996 0.25101962233964448 2.8018673840680361 255 107 117 447.897675 321.408051 4
0.47165997757804656 -0.14316457057351303 0.54086268709348506 255 210 215 715.39209 186.624023 4
-0.49196067528570786 0.43614435815454722 0.88551846354387198 126 130 134 172.108826 479.001678 4
0.64835690621885989 0.41807884722924171 0.93589926836900894 90 114 255 649.036865 460.339264 4
0.48018397370274252 0.18376440195662305 0.53869108691747836 255 179 178 723.686523 418.867249 4
0.57121470343542979 0.010599810522972482 0.91091670724342744 28 38 48 624.153687 292.377655 4
-0.53873064313921848 -0.51928097385393512 1.398542900295511 147 170 198 236.390427 145.152023 4
-0.23550508023170857 0.38105662922254879 0.61626327985369567 158 255 163 238.464035 522.547302 4
0.078667100123406483 0.40775409541286245 0.83887100928319247 41 45 58 416.793671 474.854462 4
0.38606967294689737 0.41888614991593992 1.5292549684228025 255 104 105 483.148865 396.057648 4
0.38879796659562099 0.33796431470915406 1.4288202198123126 255 84 94 487.296082 379.468842 4
0.094905332678796001 0.44292378938936411 0.68950758373942245 60 79 255 441.676849 534.988892 4
-0.28248499214028439 0.26575095457995301 0.95910692590995061 158 166 169 268.738586 393.154602 5
-0.1743631051833226 0.2754362938834386 0.69960756704169613 255 127 131 291.133484 437.944397 5
0.16213665047290668 0.40284934498118563 1.4828347513121016 105 127 255 425.502777 393.154602 5
-0.0084742735155313442 0.20675632839456448 1.0354639169255313 78 255 22 378.224701 363.294769 5
0.71026557557884218 0.055204049514850272 1.0028729770432383 255 189 143 659.404907 308.551727 5
-0.43646304661307411 -0.26496095559806704 1.336920246304909 157 255 114 258.785309 211.507233 5
-0.56619876005187586 -0.46435837204730235 1.4159536416673679 172 188 207 228.925476 164.229141 5
-0.047220502177509616 -0.90085769405743987 3.467152031320603 90 255 28 378.224701 186.624023 5
0.284348274904625 0.39423775362617625 0.66983843115418784 189 190 186 544.942139 512.593994 5
-0.2293733777086655 0.36897059840817414 0.60307745601851337 159 255 156 238.878754 520.05896 5
-0.24169420186268009 0.31373646110270559 0.6265015730877137 84 255 38 238.878754 475.269196 5
0.082978645801257939 0.35975759779154548 0.63263723977189013 255 49 65 435.456055 510.105682 5
0.0055607664778909716 0.26393746675173457 0.44880687856266716 42 45 59 388.177979 515.082336 5
-0.45316820492857224 0.39079321524706945 0.6756193784741904 0 0 255 121.927696 507.61734 5
-0.61127055507152428 -0.5796485821083095 1.5535082386150643 146 169 197 236.390427 144.322586 5
0.37617591717997606 0.31815724205855223 1.3516560450078612 187 255 187 490.199097 375.736359 5
-0.30316664263823523 0.24649892801479262 1.0455443727523348 152 165 172 268.738586 380.713013 5
0.27928692017620615 0.42219656191169197 1.5618204323753428 255 81 92 455.36261 390.66629 5
0.14054064658632845 0.31185844101753712 1.4220996321328574 170 255 171 418.037811 368.271423 5
0.4832306948846013 -0.15497749046721079 0.55735881255318742 255 211 215 719.124573 184.135712 5
0.083566804862754057 0.42683132902562415 1.8339718808554928 98 255 73 406.093903 382.206024 6
0.39669917513713571 0.25477885803153727 1.4988195696021713 255 93 104 483.729492 352.346191 6
-0.3397009491756513 0.42310358249767838 0.7213502159169104 255 156 160 203.046951 513.589355 6
-0.43706780050722527 0.39454985456927938 0.81055290230143062 154 153 255 173.187103 477.757538 6
0.055001682084655251 0.38226737275177536 1.1799628068436596 255 186 188 403.10791 412.065857 6
0.71040151222817738 0.34972131501001424 1.0013342789529025 255 197 198 659.902588 421.023834 6
-2.0141829821934687e-05 0.26304354486690174 0.46832931956256546 110 117 255 385.192017 498.659424 6
-0.018485299547319978 -0.80497998779583524 3.0638828431630967 255 24 62 379.220032 188.117035 6
-0.2311865977754643 0.36720493593426534 0.60938741727827717 255 161 163 235.892776 516.575317 6
-0.57659523223117726 -0.54384225871415492 1.4774822359954063 255 149 171 235.892776 146.313248 6
-0.48839847674817261 -0.51678839209925997 1.3366485836511257 159 192 255 241.864746 137.355286 6
-0.057987379747233114 0.12691988134782969 2.5115376267523799 13 64 95 376.23407 310.542389 6
0.54091937524255118 -0.14647981037697388 0.93837339982887313 233 255 227 606.154846 229.920807 6
-0.038186246443776745 0.25095434236566455 0.51493783491903755 255 83 96 355.332153 474.771545 6
-0.31511817181310331 0.25685766234403257 1.079394538854628 148 164 174 268.738617 379.220032 6
-0.45204883853311195 0.32324091483371659 1.1837748136023651 163 164 255 241.864746 394.149963 6
0.27833070792431369 0.33399006660972996 1.4865967380546754 91 105 132 456.855652 373.248077 6
0.13469280241955542 0.27692693385198808 1.4315189390789411 170 255 172 418.037842 361.304138 6
0.2899275550061316 0.077421332119515809 1.8403390744490646 19 82 114 444.314514 304.570435 7
0.5704502394712061 -0.14390296101568584 1.844713324134895 52 62 255 505.228607 257.989075 7
-0.42582672564504254 0.39079240608201449 0.79425182625779134 255 160 161 175.575897 476.563141 7
0.28685308802077869 0.44386966621816559 1.4431477572421345 215 214 255 465.813599 404.899536 7
0.081028815553203515 0.39590121773024289 0.82170145601851163 255 52 54 419.232239 472.97998 7
0.67600352502628602 0.4433334596798803 0.99540929861071414 133 139 150 652.139038 455.064056 7
-0.21176587921029688 0.29132506156042509 0.57345562159932739 67 79 98 236.48999 480.146332 7
0.46858582810905303 0.37654035326670854 1.044390655224992 200 255 204 558.976318 426.398621 7
0.53502555471453372 -0.14473465771189151 0.92686985315204973 232 235 255 605.557678 232.906799 7
0.48751046692641115 -0.11555811180891863 1.0660706246712668 255 111 125 555.393127 247.239532 7
-0.56213125784611795 -0.51300305889765696 1.4359047607511055 150 171 198 232.906799 146.910446 7
-0.3016402245658355 -0.27475671073633273 2.1975112952241056 81 114 255 333.235901 232.906799 7
-0.37931076848972289 0.28872096508292416 1.0318497405809823 255 157 163 243.656357 394.149963 7
