ply
format ascii 1.0
comment Written with hapPLY (https://github.com/nmwsharp/happly)
element vertex 87
property double x
property double y
property double z
property uchar red
property uchar green
property uchar blue
property float ix
property float iy
property uchar octave
end_header
1.1049551236469908 -0.51479492955830042 2.0624948939620298 228 238 255 589 190 0
-0.43144872715270921 -0.3835269093794893 0.64773370970081201 175 209 255 129.600006 61.2000008 1
1.0920970239096013 0.49104870149510355 1.696980699225521 255 157 169 631.200012 398.400024 1
0.14785671643734188 0.40630644777567027 2.4299425533275079 195 210 255 409.200012 351.600006 1
0.40530181997998627 0.33994271197766246 3.0735754978859733 163 186 255 433.200012 331.200012 1
1.259401806451435 0.62925374592981598 1.4697533184113025 83 81 255 717.600037 454.800018 1
1.2282016510011675 0.49660963955007831 1.324326370621371 13 22 255 741.600037 433.200012 1
1.1804241070315413 -0.43767078622203082 2.006696667673304 233 241 255 609.600037 204.000015 1
0.79194997930991362 -0.27589673115823665 2.5417815918124909 246 255 242 502.800018 248.400009 1
0.32469619543219475 0.13320832180667722 4.1600710843997719 192 255 155 414.720032 300.960022 2
1.0174704916655481 0.35603726826963772 1.9219131683518604 255 77 96 587.52002 358.560028 2
-0.4852534865693201 -1.3596577945708188 3.1163168713381726 27 81 103 324 120.960007 2
0.21339874899447597 0.63157732834599778 1.8952540149232266 99 255 107 426.240021 416.160004 2
-0.29313854868792166 -0.40310569453401368 2.4967174279920004 255 24 45 335.52002 226.080002 2
0.69837873848755327 0.5773359722161957 2.5533984877811973 150 166 255 489.600006 374.400024 2
-0.91516144316494819 -0.57568480785835041 1.0211322470598088 220 221 221 40.3199997 72 2
-0.44297669844209109 -1.8250623482064654 3.3092589437650348 255 19 47 335.232025 76.0320053 3
0.16672631913496572 0.054566253921395108 4.8401382289880051 255 132 152 399.16803 292.032013 3
1.1057507351981521 -0.39308878380567935 1.9638860197345291 255 231 236 599.616028 214.272018 3
0.20480444856051339 0.60429679958033899 1.8001881437510425 116 129 255 425.088043 416.448029 3
0.74754880835366766 0.57132091579729105 2.4265137774836996 127 148 255 501.120056 376.704041 3
1.1978221316058728 -0.081672557621540909 1.4118422946174674 255 117 150 711.936096 264.384033 3
0.16766323531261218 0.64403588466140793 1.812878788162287 255 135 149 419.904053 425.088043 3
-0.93506403783405423 -0.0037001064828831587 1.0505790498775847 154 255 152 38.0160027 286.848022 3
-0.51281704302922515 -1.3753332372996359 3.1314787710076954 255 28 84 323.481659 118.195213 4
0.18968631885722487 0.5825973434104238 1.7263403763468217 116 129 255 425.088074 416.793671 4
0.74893572778949724 0.56552707900412158 2.4472661522394379 130 150 255 501.811279 377.395264 4
0.5476506128635521 -0.54221259622715812 3.2328941502739843 80 131 152 452.044861 223.948837 4
-0.44873315118869872 -0.32648687916223573 0.70251135345251603 212 219 228 136.85762 105.753616 4
0.84111616277790424 -0.61189767847576271 2.8757270962681138 255 229 235 495.590485 207.360031 4
0.76893176418335707 -0.28192958933450485 2.4688458959923532 243 246 255 501.811279 244.68483 4
-0.21846830544518614 -0.031590081542403337 0.63081530595159485 255 116 136 255.052841 267.494446 4
-0.34743617947495942 -0.051844424386827181 0.86420439831946538 23 43 59 232.243225 265.420837 4
1.310898806769156 -0.60531716709856065 1.5019660500081642 217 230 255 721.612915 134.784012 4
-0.13909210991478571 0.43884940459803201 0.68388421349772077 90 255 40 306.892853 534.988892 4
1.1791601211497005 -0.42383315960606038 2.0032752284575581 234 241 255 609.638489 207.360031 4
1.0761776083951045 -0.53570410921626466 1.9853148203035333 236 255 212 590.976074 182.476822 4
0.95584974378194165 0.33534632994009322 1.8084853910432299 102 121 145 584.75531 358.732849 4
0.54912646175844637 0.60718257039796608 3.357633181556074 255 34 102 447.897675 358.732849 4
19.135547760935381 -31.199712353238017 58.529488974380136 174 194 218 508.032074 85.0176086 4
-0.91418121168338562 -0.003114932316504726 1.0169166212773133 255 148 143 39.398407 286.15683 4
0.29168381849630354 0.5171313528669399 1.7394870902201856 255 133 146 447.897675 398.131256 5
0.96637020368120707 0.4433196064648619 2.0259529913869034 150 182 255 569.825378 370.759735 5
0.5451268553223414 -0.49426811343798682 3.0577978086427597 80 131 154 452.874298 221.46051 5
0.49839349444605796 -0.46613788804932166 3.0351809157045562 138 255 57 442.921021 228.925476 5
0.77397840065795176 -0.59445695986160474 2.8001032377896191 255 228 234 495.175751 206.530594 5
1.0383399215540332 0.24142501199711308 2.0381736682514431 139 255 114 582.266968 335.923248 5
0.76893176418335707 -0.28192958933450485 2.4688458959923532 246 255 240 502.640717 243.855392 5
-0.46667244980721501 -1.8589846065017506 3.4139804274176724 58 79 255 333.434937 77.1379318 5
-0.25752681244959108 -0.25803779117726039 0.66507748468069527 73 93 255 233.902115 141.834259 5
1.2254977055111307 0.59833722862068273 1.4155858276849198 79 84 84 716.63623 452.874298 5
-0.40085424673399572 -0.088186081441145148 0.67324028593748642 245 255 241 154.275864 233.902115 5
1.164646462903963 -0.6250297405355707 1.5322638842511234 255 219 225 679.311462 131.880981 5
-0.18752365636455437 0.41714054892714247 0.67747006491709039 71 95 255 273.71524 522.547302 5
1.109518453312389 -0.52931794907802143 2.0895739274092726 255 219 229 587.243591 194.088989 5
0.14718734513626375 0.043240525067476665 5.2123319507770152 255 139 150 395.642944 291.133484 5
0.54987067120590383 0.61135256143845784 3.3902589397095566 255 34 104 447.897675 355.829803 5
-0.23516817135358981 0.30857054666186839 0.75668298422415958 93 255 42 262.766632 447.897675 6
-0.25518633064431828 0.64193205621467986 3.4101889209500422 162 175 189 352.346191 361.304138 6
0.18307590131988216 0.5893718331630311 1.7604524397730357 103 102 100 424.009796 415.051849 6
-0.19350042453163052 0.27626894358625365 2.3299589307310393 178 191 255 349.360199 334.430267 6
0.94938380486157825 -0.48250044415254945 2.3624667684080309 241 255 227 534.491211 206.032928 6
0.88035256746019608 -0.25969285832528111 1.9955409993451898 246 255 239 546.435181 238.878769 6
0.7796345778964513 -0.28804238801877857 2.53101871502618 243 246 255 501.645416 241.864746 6
-0.22864294301339649 -0.26243585893526622 0.70254885651150589 129 157 255 253.808685 140.341278 6
1.1399903368438333 0.38460184679197518 1.4876181214169497 255 123 140 671.846497 385.192017 6
1.1756109191585007 -0.6000891724159092 1.5323711681293632 224 232 255 677.818481 131.383316 6
-0.088399788861263318 0.05775056899753489 2.1266409276780722 255 172 185 367.276093 301.584442 6
1.0371696161596171 -0.47526354353944922 1.9261041258213236 230 239 255 585.252991 197.074982 6
-0.26449300049269375 -0.37358435347283514 0.64890540484812931 95 255 38 226.93483 68.6776428 6
1.0625129393952486 0.56546530729987765 1.7010036461822864 38 50 255 621.084778 412.065857 6
-0.38758123642809661 -0.088368759190335155 0.64026897960071016 255 243 244 155.271194 238.878769 6
1.1282941957289989 0.52348486595647703 1.7281922543299926 196 255 176 630.042725 403.10791 6
0.16484758823685031 0.57542960611107674 2.4483174768286107 79 123 168 412.065857 379.220032 6
-0.25347087649379052 -0.26588497535348338 0.72730088550564931 157 255 109 254.405899 143.327271 7
-0.44211042491110142 -0.78782751572365928 2.713118408685804 26 255 0 322.486359 175.575897 7
-0.30080950297301889 -0.18375335755508276 0.90643860786561259 159 255 110 250.822708 207.824539 7
1.1813772047335711 0.40039079014458451 1.5694537252229779 135 166 255 673.638123 386.983612 7
-0.34223565742796325 0.31224117594001588 0.68929705079919712 61 85 255 193.491806 469.39679 7
0.98332956017730433 -0.31540453948928693 2.3264183896386559 240 242 245 548.226807 236.48999 7
0.39473801710690859 0.37747805959919079 4.0686919951537641 157 255 116 422.81543 318.903168 7
1.1866604142004062 -0.50039238997807489 1.4944904122333709 255 226 230 691.554077 164.826355 7
1.2032904101413986 -0.64206243238948146 1.6072496157508089 227 234 255 677.221313 132.577713 7
-0.11835175190170899 0.058014815985234863 2.3887101573242138 169 173 255 369.067719 304.570435 7
-0.22519045310684627 -0.3841473356216254 0.66658059561152028 96 255 39 254.405899 68.080452 7
1.1324571208220244 0.53666549978855693 1.7540842377276595 189 255 164 630.639954 404.899536 7
0.72947428079642673 -0.27999731710246634 2.3098497598899543 243 245 255 501.645416 240.073166 7
