ply
format ascii 1.0
comment Written with hapPLY (https://github.com/nmwsharp/happly)
element vertex 162
property double x
property double y
property double z
property uchar red
property uchar green
property uchar blue
property float ix
property float iy
property uchar octave
end_header
-1.3384951827588183 -1.5539716476644316 5.8375115447178745 255 220 226 295 184 0
-1.8063961244546789 -1.9556274452783451 3.3511545648063858 198 255 131 178 64 0
-1.885466129960585 -2.2377974212466247 3.3303266995395395 189 255 112 166 28 0
-1.4267972179026138 -0.19172500482859633 3.7413664076169946 102 255 61 238 268 0
-0.21119558793385385 0.36715875982655444 0.63409368077808215 128 137 155 256 510 0
-1.7458903832192778 -1.525262590568436 3.3004601927146355 194 214 255 181 112 0
-1.7831144533810788 -1.7374057079990561 3.3270813997707145 255 147 174 179 88 0
-1.904128159556441 -1.7787930371691028 3.3407556019458653 205 255 148 166 85 0
-1.7828622321318219 -0.25070370410311899 3.2878722934659916 255 241 242 175 259 0
-1.654463120686803 0.034101457245980966 3.11626525123966 242 245 255 181 292 0
-0.64246210735579301 0.32133201911815024 0.68324658812518124 63 255 42 22 469 0
-1.9687314034918177 -1.4912675868374825 3.3734979302017813 201 209 221 160.800003 117.600006 1
-1.9506387422375191 -1.74791612435205 3.3459753585622134 151 176 205 160.800003 87.6000061 1
-0.2459864907905831 0.41573467819341697 1.0164038712978483 255 216 216 291.600006 444.000031 1
-0.51412329717649063 -0.067308506722641853 6.391882736333879 255 85 106 351.600006 283.200012 1
-1.1073039442864934 0.28206401578979723 1.29567868237377 255 74 96 55.2000008 370.800018 1
-2.0081436125242003 0.17525856051115543 3.3392130799753557 195 119 123 152.400009 309.600006 1
-1.6884928241816954 -0.91939598808453882 3.2158570451311213 232 255 216 182.400009 177.600006 1
-1.9203113879763638 -0.94133048679486975 3.2969542183210465 220 225 233 160.800003 177.600006 1
-1.7194928579978335 -1.2218136094105212 3.2540963962119269 223 255 199 178.800003 145.200012 1
-1.8862382480622726 -1.3630965181614911 3.2577522136693897 224 255 207 162 127.200005 1
-1.6671249303725397 0.30534209728361883 3.1416218525203443 149 169 255 181.200012 326.400024 1
-1.7714621310001841 0.28325809479419928 3.0327475103249539 218 211 193 160.800003 325.200012 1
-0.71250840672068505 0.31684233922388949 0.76176946412300817 125 255 86 22.8000011 448.800018 1
-2.3774610822978648 -0.28621672530480613 5.4157965565675656 140 255 106 214.800003 267.600006 1
-1.2116440580606329 -1.4561348493666828 5.3881213531698364 255 217 224 295.200012 183.600006 1
-1.077018361832871 -0.43177930798794545 3.437916000995537 222 222 255 265.200012 238.800003 1
-1.6589034761461248 -0.67678040704316622 3.1442606995838056 232 237 255 181.200012 205.200012 1
-1.7828622321318219 -0.25070370410311899 3.2878722934659916 255 241 242 175.200012 259.200012 1
-1.8758482758669559 -0.33574469816702274 3.2401766330084905 238 240 243 160.800003 249.600006 1
-1.8167300727045226 -2.024196986029406 3.2119708334958061 149 192 255 165.600006 45.6000023 1
0.4695420195980099 -0.0096947875463335997 0.82726390625652635 126 146 255 601.200012 283.200012 1
0.37997924490986901 -0.13497272785528858 0.90003810206401336 255 154 165 547.200012 231.600006 1
-0.21554502530560016 0.41345226987273959 0.69206878296755869 97 118 131 264 516 1
-1.6901101799401577 -1.8668569961744881 3.3072800743578301 255 132 163 187.200012 70.5600052 2
-2.035510756578554 0.1751214988618699 3.3609490310538619 195 119 123 152.639999 309.600006 2
-1.2127576068115893 -0.16305667796006201 3.2215920466682295 79 99 255 237.600006 267.839996 2
-0.71828115042716445 0.29057794632931233 0.80072880853236872 91 95 255 41.7600021 427.680023 2
-0.80811080718822015 0.33893965592273068 1.4770160979850062 63 255 97 174.240005 375.840027 2
-1.8814375121461389 0.37746753865871685 3.5806029479793722 149 169 255 181.440002 326.880005 2
-1.7219516473364305 0.11592756313981432 4.0709504210356133 110 129 255 221.76001 298.080017 2
-0.20392262816983764 0.43353312182763004 2.221029066714844 255 157 165 351.360016 364.320007 2
-1.5987411850332731 -2.0003366285852993 5.8367618834398147 206 223 255 277.920013 155.520004 2
-0.67702679547494204 -0.12787998903525813 7.5034014530641979 255 85 106 351.360016 283.680023 2
-1.5321280036818719 -0.13125443527812355 1.7177203468729054 152 148 255 41.7600021 259.200012 2
-1.7828622321318219 -0.25070370410311899 3.2878722934659916 244 255 241 174.240005 259.200012 2
-1.8758482758669559 -0.33574469816702274 3.2401766330084905 255 238 240 159.840012 249.12001 2
0.46776952040863196 -0.18676013886643833 0.83112452898066547 214 224 235 600.480042 200.160004 2
0.4695420195980099 -0.0096947875463335997 0.82726390625652635 137 147 167 600.480042 283.680023 2
-0.26696459060327982 0.4348945653761167 1.0831526764166999 216 255 214 290.880005 444.960022 2
0.58227444118993388 0.034765195760808547 0.81371731920401191 116 143 164 660.960022 305.279999 2
-0.5070706348226135 0.31986596452708316 1.0487054008332102 196 203 195 196.99202 402.624023 3
0.01337386180367961 0.46414640980336941 1.0793035287923345 203 204 255 385.344025 452.736053 3
-1.2127576068115893 -0.16305667796006201 3.2215920466682295 66 86 106 236.736023 266.11203 3
-1.5298701858790951 0.24259153414606272 2.6433677730592962 214 210 198 160.70401 324.864044 3
-0.12994156283363134 0.43264974021457742 2.6853984582868056 211 210 206 368.064026 352.512024 3
-1.9384992339431397 0.46044855690425041 4.6602963788900222 62 65 57 228.096024 326.592041 3
-1.6201851741520081 0.30387517269807235 3.0843707249451295 255 151 160 179.712021 324.864044 3
-1.2579832819062609 -0.66272821918702529 3.4093176586784653 104 124 255 245.376022 212.544022 3
-1.4362183589817636 -1.646325139406098 6.0964139787447182 225 233 255 293.76004 183.168015 3
-1.2745173246622024 -1.1228590221234485 5.8756758166552308 238 255 222 302.400024 216.000015 3
-1.1789840189036869 -1.8807531339312091 5.6792281260027382 225 255 191 302.400024 160.70401 3
-1.1389759488133313 -0.44659011908950152 3.5798879394034264 221 222 222 264.384033 240.192017 3
-1.7425570170441582 -0.72671098798226375 3.4266236226051978 238 255 229 190.080017 207.360016 3
-1.796976038011449 -1.0513837489742723 3.3528266564783946 216 228 255 177.984024 164.160019 3
-1.9449477529491861 -0.49440310380393904 3.3444237077390193 236 238 241 160.70401 231.552017 3
-1.6621326138355896 -1.2705940043173303 3.2924351175116646 187 203 220 188.35202 138.240021 3
-1.760415265261452 -1.5342052628063292 3.3082070312529606 255 176 193 179.712021 108.864014 3
0.48419344894205985 -0.26575319822588994 0.82654123073034036 227 255 197 606.528076 165.888016 3
0.53089642274951132 -0.82197911498675313 4.3411074441936304 238 255 229 430.272034 212.544022 3
0.86488699760444554 -0.72764273631788412 3.0148670743597275 234 255 216 494.208038 193.536011 3
0.4545581384779015 -0.3463051308115716 0.80213129622054868 255 175 194 599.616028 122.688011 3
0.5952557029539105 -0.38491818729098848 0.85632560467489016 255 167 188 651.456055 114.048012 3
-0.21554502530560016 0.41345226987273959 0.69206878296755869 98 115 143 264.384033 514.944031 3
0.37710122836818338 -0.44682749639086827 0.84747919296796281 206 255 149 554.688049 86.4000092 3
-0.59324924784037769 0.27027270402557224 0.690665550090106 255 198 199 55.9872093 435.456055 4
-1.1220685959936274 0.27962200221206546 1.2998157430200743 107 116 255 53.9136086 369.100861 4
0.41339030291113066 0.35412475070949467 0.83735543294079884 138 255 101 574.387268 454.118469 4
-1.5523325932200969 0.11231218513582994 3.7301549462544932 255 98 112 219.801636 298.59845 4
-0.19851148633099958 0.28190791109533064 2.727411454954892 114 131 149 352.512054 327.628845 4
-0.12383875328384564 0.46889792355661553 2.0731105069647549 200 202 183 364.953644 377.395264 4
-0.20562786222325524 0.40656555986561654 1.7241921686112032 70 80 104 340.070435 379.468842 4
-0.13967694448205026 0.44985252384884339 2.6852273412925145 255 211 210 367.027252 352.512054 4
-1.3102796574563578 -2.0925645589120587 6.2498492290962382 225 255 191 302.745636 161.740829 4
-1.3184452172327377 -0.18133353059654517 3.4532364399457696 66 86 106 236.390427 267.494446 4
-1.8009348634485089 -1.07690273122072 3.3418400804078798 228 255 205 178.32962 163.814423 4
-1.9288548801210843 -1.0979709697340323 3.3320440288629158 215 227 255 161.740829 161.740829 4
-1.8773387005088074 -0.32837572345999211 3.2715943764268003 255 238 240 163.814423 250.90564 4
-1.871915185746027 -2.089864117120606 3.3059549196131743 149 192 255 165.888031 45.6192055 4
-1.9069732190664523 -2.0364643198640002 3.3008126447056267 152 194 255 161.740829 51.8400078 4
0.46959784607927035 -0.22667221834994822 0.83228476195468026 255 204 217 599.270508 184.55043 4
0.55785630707232603 -0.039778567329317269 0.81800824658248095 190 255 162 642.816101 271.641632 4
0.56928239033550132 -0.47986500585190539 0.85933640621421814 144 170 204 640.742493 76.7232132 4
0.46405518458042538 -0.35516744210379964 0.82927287125211135 255 175 194 599.270508 122.342415 4
0.38607094756631488 -0.46264566048033817 0.88155208102800664 255 149 174 555.724854 85.0176086 4
-0.074157550529101668 0.44873938526802665 1.0891014808157549 104 255 83 358.732849 445.824066 4
-0.30412543957047333 0.28080737127889466 0.44074645946316815 198 255 198 118.195213 530.841675 4
-1.1652037834118985 0.26089640896025346 3.8778297750843311 255 152 154 271.641632 317.260834 4
0.19248865998806985 0.45262608553144412 1.5654702778714831 255 216 218 431.308868 400.204865 4
0.19363847199260298 0.46468214437529826 1.8015109047878379 255 183 185 427.161652 387.763245 4
-1.0047267767323294 0.32411426516799419 2.0116425984739861 255 124 137 191.600662 348.364838 5
-0.24208610266171182 0.30971502352112618 3.0686966473301132 255 178 190 355.829803 330.946594 5
-1.6810580626870228 0.12382805616021066 3.9410834913966841 105 124 255 221.46051 301.086761 5
-0.13463965520297827 0.40890848600530516 2.6230334823843551 219 216 255 365.783081 350.85318 5
-0.19593483649009036 0.310268065494678 1.7051184362460576 134 147 167 340.899902 355.829803 5
26.93189431245932 -20.401173591575009 34.548432499540127 160 199 255 681.799805 59.7196884 5
-1.5797729052755134 -1.9594015207895985 5.7662064697273197 223 255 190 278.691895 156.764175 5
0.46769203746218724 -0.18849025401970912 0.82058416885455632 216 225 235 604.661865 199.065628 5
0.46745434293148569 -0.36071651580925995 0.83145214490191366 255 174 193 599.685181 121.927696 5
-1.5864943307279096 -0.19676101736834667 3.1862252852788324 255 241 242 191.600662 261.273651 5
-1.8773387005088074 -0.32837572345999211 3.2715943764268003 238 240 243 164.229141 248.832031 5
0.51885051676307647 -0.85625630573141542 4.5870755854073506 239 255 231 430.479431 211.507233 5
-0.22019974254667307 0.30052515100678068 0.4985139374534493 191 193 255 213.995544 520.05896 5
-1.2748009098234356 -0.17604508081918666 3.3430135320176282 66 86 106 236.390427 266.250275 5
-1.0498661615088123 -0.41531391017099983 3.3303334355279142 255 221 222 263.761963 241.367081 5
-0.66650379924500847 0.40139753150402802 0.79855486259183839 167 158 152 64.6963272 482.734161 5
0.18962627551296796 0.42843432705394607 0.94985660134885563 215 216 214 460.339264 457.850952 5
-0.24792010859586577 0.4068346533860619 1.0201154192204582 255 215 212 291.133484 440.432709 5
0.1851226925172621 0.45326876679797551 1.5374687945054109 216 218 216 432.967743 400.619568 5
0.080890839205752796 0.44667341946186079 1.9104885238371283 255 126 140 403.10791 378.224701 5
-1.4827410055012074 0.25501535869269742 3.076752350304544 255 169 169 199.065628 318.505005 5
-1.9288548801210843 -1.0979709697340323 3.3320440288629158 215 227 255 161.740829 161.740829 5
-0.52968998723323013 0.21689989428876638 1.9698298720297709 196 255 197 274.710571 331.444275 6
-0.23183157546373945 0.4829434030869833 3.1098668200927855 226 224 255 361.304138 349.360199 6
-1.8009348634485089 -1.07690273122072 3.3418400804078798 206 216 228 176.173096 164.229156 6
0.57047912810504431 -0.46896163995831275 0.85607254782030195 255 148 172 639.000671 77.6355972 6
0.47788726606662368 -0.22759803953534341 0.8310561745545888 255 211 221 603.168884 185.131042 6
0.59504356714734463 -0.3584512095671436 0.84395866089732707 195 216 255 653.930603 122.425369 6
-0.26737488747260874 0.42940079257455532 0.92109971092453291 206 255 206 274.710571 468.799591 6
0.59407448606230007 0.035640568531889544 0.81438695397601291 255 115 139 659.902588 304.570435 6
-1.1169199668067127 -0.16609209962766158 2.9394906775484939 255 72 94 235.892776 265.752625 6
-1.204620093608042 -0.70097608025977853 3.2919693437748672 84 98 120 244.850739 206.032928 6
-1.5726996689268984 -1.7836376033333927 6.5531520333134488 218 224 233 292.626495 182.145065 6
-1.5335047326224771 -0.44644989260238332 3.4106896449606352 128 146 255 209.018921 241.864746 6
-1.8755383515453303 -0.33054267773206425 3.3017489813327927 255 239 240 167.215134 250.822708 6
0.19544264616805296 0.45563390304118312 1.1462835343885649 214 255 220 450.883667 441.92572 6
-0.079338525973892127 0.45901415637345716 1.1426016213396806 102 255 79 358.318146 444.911713 6
-0.759724455735455 6.9245960858277389e-05 6.2453965290865199 95 115 140 340.402252 292.626495 6
-1.2383101929700286 0.25040235873852834 4.2244213630851783 255 129 131 271.724609 313.528381 6
-0.50438304563451153 0.3134754344669366 1.0445956909616043 183 195 183 200.060959 397.135956 6
4.747426382830378 0.35505271083091444 7.3810360766124719 150 175 255 633.028748 307.556396 6
0.47046742706888645 -0.012744847372297571 0.8332333133182781 255 105 117 603.168884 283.668549 6
-1.9122945355039587 -1.7974944236697334 3.3655025456273591 138 168 201 164.229156 77.6355972 6
-1.1789840189036869 -1.8807531339312091 5.6792281260027382 208 225 255 301.584442 161.243164 6
-1.9288548801210843 -1.0979709697340323 3.3320440288629158 215 227 255 161.243179 161.243179 7
0.56725824212137355 -0.47870704473942716 0.86249384449477184 174 205 255 637.806335 78.8299942 7
0.63743649231134869 -0.39566532549368655 0.92432704189696491 255 173 193 655.722229 121.828178 7
0.44926114053073374 -0.18151710104411656 1.7631606167059268 239 241 244 476.563141 250.822708 7
-1.9502679755718653 -0.27462976471770456 4.4853853762760947 133 255 98 214.990891 265.155426 7
-1.1130354787144521 -0.40575575166980049 3.4666653248906565 223 223 255 261.572266 243.656357 7
-0.37652836936366696 -0.020050946870494739 3.9911813582048143 255 83 104 343.985443 286.654541 7
-1.9509436018096258 0.34202992098118257 2.4943474277353115 156 255 126 82.4131775 340.402252 7
-0.065255751083852953 0.43746764890878254 1.0910464528256634 102 255 79 358.318176 444.314514 7
-0.25561808221272808 0.42061068578675281 1.0551682088897112 210 255 212 290.237701 440.731354 7
-0.39598036582449092 0.35311218562481328 1.0971770504913831 255 213 214 247.239532 412.065887 7
-0.13680086556456983 0.47253818352506682 2.114796008708594 192 148 255 361.901337 376.23407 7
-0.21619726889634849 0.39093554072520997 1.4488804757988858 129 255 170 326.069519 390.566803 7
-0.25718266388642208 0.45667683433027673 2.0779735328316087 120 134 153 336.819061 365.484528 7
-1.0221751923308839 0.33523319109122485 3.3268339504899465 168 175 186 268.738617 333.235901 7
-0.65931575624737082 0.28381265016679008 1.7726535130702681 255 176 181 243.656357 347.568604 7
-1.1210844117255014 0.20650583640433595 2.0565201411652887 255 191 195 175.575897 322.486359 7
-1.9474745438980237 -1.8409754722420113 3.40579947263201 139 168 202 164.826355 78.8299942 7
