ply
format ascii 1.0
comment Written with hapPLY (https://github.com/nmwsharp/happly)
element vertex 85
property double x
property double y
property double z
property uchar red
property uchar green
property uchar blue
property float ix
property float iy
property uchar octave
end_header
0.52604852474474173 -0.036176129432540893 1.1455295712930127 251 255 249 562 277 0
0.58988081667968117 -0.37734764626129014 0.722189241425224 204 224 255 697 88 0
0.56565394400271529 -0.3342623563470366 0.96037087507616725 233 239 255 609.600037 153.600006 1
0.54859514699275369 -0.35278622571164897 0.92836123440427976 220 233 255 609.600037 142.800003 1
-0.29190347616592272 0.59941527569388109 0.95728976833674295 166 255 130 266.400024 529.920044 2
0.51405959667814316 0.59731141631662421 1.8665820752926763 212 255 207 486.720032 411.840027 2
0.5011592509461571 0.28906875389603814 0.971535547100987 255 127 152 583.200012 404.640015 2
0.056322137932260929 0.72415639618438976 1.8283075747779893 22 28 42 396.000031 439.200012 2
0.60551376462563367 0.084360558907910166 0.71639608112028164 245 249 252 708.480042 334.080017 2
0.63175686519748342 0.12338707809197769 0.69956979628737948 255 219 166 731.52002 357.120026 2
-0.38757830147267125 0.91968546300500709 4.1282614857754982 255 76 169 347.328033 376.704041 3
0.59975488358431761 -0.014289429869646542 0.8064086622172173 249 249 250 672.192078 281.664032 3
-0.34456066626942627 0.7254142692761123 1.3809841835253165 59 85 115 288.576019 489.024048 3
-0.33197710671270331 0.70994588749566789 2.4656946074412804 255 61 148 331.776031 397.440033 3
0.52787323966965971 0.53184488734891189 0.85580041816888208 225 255 224 618.624084 525.312073 3
0.60162995974543065 0.35672991550042266 0.66957456606922872 255 84 96 727.488098 492.480042 3
0.37161643226098651 0.71799971438574772 1.3234669192247317 175 167 255 489.024048 494.208038 3
0.46987124152330617 0.10081041338643404 1.0194372148770663 183 199 255 561.600037 326.592041 3
0.56431727771313644 0.028315977292671768 0.75062765886356875 245 248 251 672.192078 302.400024 3
0.039462364951662554 0.23576420433445078 1.9742992363475329 245 249 252 392.256042 333.504028 3
0.22515639563545897 0.18363312728698777 2.896682701865803 245 249 252 416.448029 314.496033 3
0.64479374306010939 0.88312345596145603 2.5459488542674977 178 191 255 481.075256 425.088074 4
-0.39211148193502154 0.93342739665516872 4.1765456961469827 197 255 104 346.29126 377.395264 4
-0.37069351186125576 -0.65361576352829509 1.159109464880701 153 178 255 261.273651 70.5024109 4
0.63163681709892927 -0.20866701572478674 0.71816470719801995 234 240 255 721.612915 176.256027 4
0.61552043962143443 -0.28820170245354837 0.8713901948729097 226 236 255 657.331299 157.593628 4
-0.28174005957697013 0.56405647279663196 0.8925585057810812 141 165 255 265.420837 528.768066 4
-0.24914211190286073 0.69476087748650217 2.5628894674554976 197 255 165 346.29126 391.910461 4
0.57613050657371812 0.34603472177853956 0.76818343360915264 255 169 173 671.846497 462.412872 4
0.52748381529763266 0.74532437366547688 1.3060902641214298 197 205 255 541.209656 508.032074 4
0.42219334547324472 0.72732870946584383 1.4142045323199754 197 190 255 497.664062 483.148865 4
0.4680092310174393 0.033662525336833449 1.0295987324035289 255 246 249 559.87207 300.672028 4
0.31531433110253149 0.23998955867665472 1.6081322180765545 247 255 242 458.265656 342.144043 4
0.12018867052217952 0.16487001251497735 2.5151050692193682 252 255 245 398.131256 313.113647 4
0.069741541978147081 0.36450614194484565 1.626062497052704 115 255 109 402.278442 373.248047 4
0.57618317591938872 -0.36007698573075109 1.2769067400045566 234 240 255 557.798462 178.32962 4
19.734883940916802 -30.874840783658019 58.433308227790413 180 201 223 516.326477 82.9440155 4
-0.50155031595739574 0.55828482630272624 2.3875018739294287 175 196 255 301.086761 383.201324 5
0.52630133512319732 0.72115203070220479 1.3756943761162814 209 212 215 532.500549 487.710785 5
0.57614897128548392 0.42772267378949125 0.76489624187849881 255 136 151 671.846497 500.152405 5
0.56072309940600684 0.44402771793588336 0.79737083270208853 197 255 183 654.428223 500.152405 5
0.66735198056532763 -0.20040668822098695 0.94982465523090198 243 255 230 654.428223 201.553955 5
0.46656898495380239 0.10204284309842704 1.0238948360519 217 255 171 562.360413 325.969971 5
0.53174120532657687 -0.039805570776414223 1.1904714413313098 255 249 249 559.87207 273.71524 5
0.55668357439278426 0.33495153496852059 0.74157043353792051 255 112 117 671.846497 460.339264 5
0.60082023005610541 0.1393960787603723 0.70111665621859753 255 168 165 711.659607 365.783081 5
0.56734915616549064 0.16246705910066628 0.821110556946123 255 229 198 651.939941 360.806458 5
-0.33215831348261471 0.66582940068803032 1.09194138154756 154 255 116 266.250275 525.035583 5
-0.33625111792988394 0.75111997296975641 1.4286776947873081 64 88 117 288.645172 490.199097 5
0.64718383273095981 -0.30333559512520969 0.92140679275447646 217 226 236 656.916565 156.764175 5
0.37912069602109622 0.74168317191080257 1.2355574594279179 255 219 219 507.61734 517.570618 5
-0.20087509446944196 0.76520996556776977 1.2789156533584363 130 147 168 316.514374 516.575317 6
-0.050977904154231091 0.75779428849672281 1.4589082365013004 16 255 13 370.262085 486.715485 6
0.00015989782215575232 0.65659808116829588 1.0849556439620649 228 227 225 388.177979 516.575317 6
0.090665208919670892 0.67922622235280206 1.3987156575520814 96 255 90 406.093903 471.785553 6
0.58575766164277732 0.29324650667525365 0.8427580830298389 173 255 155 650.944641 424.009796 6
0.56249695529590316 -0.3319043763240439 0.94274241567106198 227 231 237 612.126831 152.285217 6
-0.30883306158762203 -0.17972843228819713 0.95092345405970136 255 151 165 259.78067 217.976868 6
0.37508529741723651 0.29177461792997805 2.0582147273591707 242 242 247 456.855652 343.388214 6
-0.30987519641832861 0.69257230733253605 1.2857367203307923 98 121 255 289.640503 492.687439 6
0.5701422779477805 -0.053199042177905165 0.76325481262871531 249 249 250 668.860535 262.766632 6
-0.40610435156728286 -0.68566881592213269 1.2529031489750579 255 127 160 259.78067 71.6636276 6
0.3950936357399828 0.51814342206030717 1.8825287058192322 71 66 255 465.813599 391.163971 6
0.083735829196244449 0.45606268126599558 2.0224096379757519 255 98 100 403.10791 373.248077 6
-0.19853153084348252 0.71832698929093564 1.8710761907758053 255 183 191 343.388214 435.953735 6
0.50553710178958466 0.73304566971149998 1.2801265912058168 191 195 203 540.463196 507.617371 6
-0.26659445860519249 0.59230629189345541 1.9956565259038772 166 183 202 328.458313 406.093903 6
28.179459707888753 -27.842652483039036 70.926548195506825 233 255 210 534.491211 134.369308 6
0.61640590056737121 -0.44951313350051758 0.83495549872137254 222 255 178 662.88855 80.621582 6
0.62645547664779855 -0.19622546807305019 0.89300506908079136 243 255 231 650.944641 203.046951 6
0.45728223681419333 0.65185162841582489 1.7866379162380106 170 178 193 480.146332 426.398621 7
-0.33125953476916559 0.75389378825206865 1.4232062980888864 68 255 71 290.237701 494.479065 7
0.096158334368090959 0.76641932177928451 1.6853153790017279 91 97 99 404.899536 469.39679 7
0.56283580489804397 -0.35016800681088855 1.1622777278806096 234 240 255 573.309082 171.992722 7
0.54076524377956869 0.42799675807920634 0.76669727425827539 206 210 214 652.139038 501.645416 7
0.55542758550563454 0.33274769794853931 0.74382696811655347 173 255 166 670.054993 462.230438 7
0.17669024014087831 0.20344279403367493 2.9048796732958575 255 245 249 415.649078 315.319977 7
-0.20542446357796473 0.73185744796408869 1.9454012843844941 175 187 200 340.402252 437.148163 7
-0.34643661036130702 0.76371662334259227 2.6950207444062251 159 181 201 340.402252 394.149963 7
0.32460292003388069 0.26615162317457752 1.5929846235137068 246 255 241 462.230438 351.151794 7
0.57565191216777678 0.1230705444320912 0.83259973053197989 241 241 246 648.555847 343.985443 7
0.56151749748632485 0.047661192563217325 0.79580936650300416 245 248 252 652.139038 311.736786 7
0.33168528956100629 0.60438125344532945 1.6325935030436352 189 255 161 462.230438 426.398621 7
0.055113022021976654 0.52472706256386559 1.681611589811256 75 81 255 397.733154 412.065887 7
0.41141804253054115 0.69428476010047269 1.3830864652819157 171 255 177 494.479065 480.146332 7
