ply
format ascii 1.0
comment Written with hapPLY (https://github.com/nmwsharp/happly)
element vertex 67
property double x
property double y
property double z
property uchar red
property uchar green
property uchar blue
property float ix
property float iy
property uchar octave
end_header
-0.55384006955803278 0.72165772410862594 1.5906173257217757 227 224 255 249.600006 463.200012 1
0.70868768697309092 0.58291769912768343 1.087555350324509 143 255 102 634.800049 492.000031 1
-0.28508414380548652 -0.063448694355319635 0.34752743257706609 85 112 255 69.6000061 219.600006 1
-0.34496189603990857 0.099988247367980065 0.4713345277469827 26 154 165 100.800003 367.200012 2
-0.71891585817791803 0.74828392494416907 2.1504806967048111 179 255 185 254.880005 420.480011 2
-0.35789691225529863 0.73190926232958287 2.3104580421702519 128 138 140 324.864044 407.808044 3
0.10729532902954642 0.71749525432220862 1.1248755694163695 255 13 13 419.904053 533.952026 3
0.17158731637930491 0.18925909780513539 1.6663846100826687 255 244 248 423.360046 328.320038 3
0.089149853497308751 0.22286566231892557 2.1955442728266892 244 248 252 400.896027 326.592041 3
-0.55581720422535286 0.71597975437275041 1.5879355892542897 225 224 221 248.832031 461.376038 3
0.0091505309332100548 0.29809111319304638 1.5208808572238333 239 239 245 388.800049 366.336029 3
-0.23237201615622549 0.77951282636450303 1.3462570652437549 40 45 52 316.22403 511.488037 3
-0.26573948746731002 0.78815733966772505 2.2637928112567174 79 82 87 336.960022 423.360046 3
-0.32981969595459493 0.69150159814680201 2.4166737663216189 187 185 181 328.320038 397.440033 3
-0.31656023103790432 0.71036784946643916 1.1619440599929494 223 222 218 276.480042 523.584045 3
0.091296596985542378 0.21960442254120771 2.2060970961000432 244 248 252 400.204865 327.628845 4
0.49623401890662677 0.64638123560040794 1.2956981492141306 106 255 69 530.841675 481.075256 4
-0.35186556029737925 0.77661348121439389 1.7302247357480622 187 187 189 304.819244 462.412872 4
0.48770939739756569 0.6450574148116166 1.2987511842807198 66 81 98 532.915283 476.92807 4
0.65772993538039448 0.66312081279299795 1.0261771585669726 102 122 144 628.300903 534.988892 4
-0.20382686213890233 0.7723140823981387 2.8734564753577452 74 77 84 356.659241 391.910461 4
0.10695507216073485 0.69070947379008674 1.0788672835683952 13 13 28 420.940857 532.915283 4
0.41535916667129658 0.74799539467272513 1.4569715359686679 163 178 255 497.664062 487.296082 4
-0.72791387326829371 0.75224706502688221 2.1805054961963037 255 101 104 255.052841 418.867249 4
-0.34662589191742743 0.14993159067394313 0.38262074940992186 255 139 155 39.398407 439.603271 4
-0.26170140746895676 0.78106187471490873 2.209079005367343 72 78 255 337.996857 423.014465 4
-0.61687773724953043 0.70053882708994397 2.4075618283006381 171 255 176 286.15683 398.131256 4
19.820770884886592 -31.077368027151024 57.739801196057989 219 255 173 518.400085 82.9440155 4
0.0029396619398980306 0.27313991924921011 1.3854117950948321 239 239 245 388.177979 363.294769 5
0.36053329475245222 0.6099114843406892 1.5547475733252787 186 193 255 477.757507 435.456055 5
0.49351084500410458 0.63755696537875783 1.3000265562050393 71 91 107 532.500549 480.245819 5
0.18451600484412767 0.21065317035927844 1.9352003100730526 255 244 248 423.014465 330.946594 5
0.080475858944664358 0.19839998685287963 1.8948762544504749 244 248 252 400.619568 325.969971 5
-0.20286488524825286 0.80424704676896219 1.2751512109143777 22 38 255 325.969971 525.035583 5
-0.23792763772866499 0.77605833706539107 1.3462113799082438 37 42 49 316.016693 512.593994 5
-0.2012946302246017 0.80007364153544103 2.5568008404346756 42 255 38 350.85318 408.084534 5
-0.19245150342976514 0.74269682723704999 2.7255765990486758 255 65 67 355.829803 393.154602 5
0.029916084210217075 0.59807042077513728 1.0819227274575685 156 150 255 393.154602 497.664062 5
-0.68066129425267041 0.78624394723256685 2.7875316266418046 189 191 194 288.645172 395.642944 5
-0.72964374244173413 0.62175733205769479 2.2434465577865357 255 189 185 263.761963 390.66629 5
-0.32992934924928274 0.12095040352554776 0.42181204884522305 255 0 86 79.6262512 395.642944 5
28.117671999661777 -28.244813908893462 70.439455860267572 216 230 255 537.477173 134.369293 5
0.58257564743510715 0.64737764038845258 1.5609792090874191 49 71 89 528.519287 447.897675 6
-0.37191251862675534 0.75564499408085162 1.8933708644817351 255 221 219 307.556396 441.92572 6
0.023958161373683895 0.55087333293613661 0.99780974490926866 167 255 154 394.149963 498.659424 6
0.14755497595407085 0.24578557562051362 2.3911854922370654 255 244 248 403.10791 328.458313 6
-0.23282410139329635 0.75774008050890096 1.3036283084317448 55 61 255 313.528381 513.589355 6
-0.23907290419890215 0.7098777143656263 2.0093419717202918 85 90 255 337.41626 424.009796 6
-0.49939994637683816 0.74697557218051269 2.7181384779432491 214 211 255 313.528381 391.163971 6
-0.66960274293391242 0.76117857031044966 2.7182487818483594 183 255 189 286.65451 397.135956 6
-0.33230616624750509 0.76306447339016525 1.3104761624104135 216 255 222 286.65451 513.589355 6
-0.34068692717678672 0.75604034725994973 1.5285358114165737 223 223 219 300.987244 483.729523 7
0.35958219451122986 0.68638705522354382 1.2423841829840283 163 255 135 494.479065 498.062256 7
0.18065851754598694 0.27360880654779995 1.3637331652618485 239 245 255 433.564972 361.901337 7
-0.35971126700648215 0.75491684429466321 1.707875110031762 190 190 194 304.570435 458.647247 7
-0.3755057967316735 0.74730428586499098 1.8706708709590298 225 224 224 308.153625 440.731354 7
0.37227273282876361 0.55462237978556717 1.2995175044931822 178 255 150 494.479065 447.897705 7
0.51244353097073492 0.6110173790543918 1.8756774484808734 182 255 151 494.479065 412.065887 7
0.29265416694002688 0.3738532942068058 1.1964574255573348 168 153 144 480.146332 415.649078 7
0.095127750564209634 0.22530021697383429 2.1080227735677823 248 251 255 397.733154 329.65271 7
-0.1862334545222315 0.74226025315795408 2.7174678171682043 68 255 50 354.734985 394.149963 7
-0.18551123814186044 0.70817127839693672 2.1244692433912675 255 57 67 351.151794 412.065887 7
-0.29385071980793143 0.74379207194339791 1.9846570112939839 204 202 255 329.65271 429.981781 7
-0.49264186766616502 0.9155850728285122 2.5455571812208824 188 195 203 308.153625 429.981781 7
-0.34472399037508694 0.75331485860700553 2.4212679002662387 101 255 106 326.069519 404.899536 7
0.98269155432612398 0.68893864288540563 1.7484511048705258 138 255 101 598.391357 437.148163 7
0.87022334397922274 0.74793467243743361 2.5029779740846436 255 140 158 523.144531 404.899536 7
