ply
format ascii 1.0
comment Written with hapPLY (https://github.com/nmwsharp/happly)
element vertex 124
property double x
property double y
property double z
property uchar red
property uchar green
property uchar blue
property float ix
property float iy
property uchar octave
end_header
0.70926046382006258 0.64712822317842544 1.305162546455759 255 75 84 591 478 0
-0.58681376117345518 0.69475478104962374 1.5495372987156903 195 255 183 238 462 0
-0.14927685848708094 0.71381390662387156 2.2826387375396457 157 255 98 358 409 0
0.78411610221505068 0.5860993237060379 1.1773703749934201 255 136 147 639.600037 477.600006 1
-0.3463111929507634 0.086311501661263834 1.1526999420101456 255 144 160 267.600006 319.200012 1
0.61078290177148942 -0.40392958421510339 1.8450538033526547 237 244 255 513.600037 205.200012 1
0.4678992624013969 -0.3454575329626085 1.8406747562145052 240 243 245 480.000031 216.000015 1
-0.16018778814921353 0.70758450093505654 2.8636976744161045 170 191 255 361.200012 380.400024 1
-0.52984223113864104 -1.3333500812033448 1.9526426584260799 255 132 171 279.600006 25.2000008 1
0.96199014208643785 0.18970699380268097 1.1566414425413685 144 255 104 702.720032 351.360016 2
-0.28936966193204761 0.078269039484265335 0.93720934378915377 181 255 148 266.400024 319.680023 2
-1.1513003836945477 0.52403334253751133 2.5589796360744677 255 203 206 211.680008 367.200012 2
-0.19643661732160878 -0.33325283641236259 1.1115229097377792 255 30 145 315.360016 172.800003 2
-0.3042453090458892 -0.01779703775896313 0.97886627983801766 248 248 250 264.960022 280.800018 2
-1.8437820989024782 -0.18638846263626441 2.0619075450692401 117 123 140 40.3199997 250.560013 2
0.61002742031223622 -0.49757253803843859 1.7427443347420102 225 232 239 516.960022 177.12001 2
0.58845753264139256 0.68139897537449112 1.2592087070940519 150 169 255 561.600037 495.360016 2
0.54606416437688265 -0.40548021692755642 2.1865083465332633 245 255 241 478.656036 216.000015 3
-0.44158363375000809 -1.2827933587915137 1.9331903203297536 255 124 171 295.488037 34.5600052 3
0.57958022302058376 0.057598028925635897 1.7758811659290918 246 248 251 508.032043 300.672028 3
0.89994809152144795 0.61919852521424446 1.0948545576703532 255 216 216 703.296082 506.304047 3
-1.8664009151424623 0.066775164585649971 2.2995037510979968 196 255 203 74.3040085 298.944031 3
-0.68743210659955256 0.50956289703422875 1.702013513513049 225 224 255 229.82402 402.624023 3
-0.22910265246683137 0.25278875085213531 1.093761112008317 35 255 9 302.400024 374.976044 3
0.62807046070649397 -0.057555485993924571 1.9590368264849163 250 251 255 509.76004 276.480042 3
0.53911019537583305 -0.024839854742919276 2.0465037690352892 255 249 250 483.840057 281.664032 3
-1.7060927179131999 0.68429847444652792 2.2208778382786996 202 195 190 88.128006 406.080048 3
-0.33598637874849802 -0.022891467159717516 1.0853893705106374 248 248 250 264.384033 279.936035 3
0.87786585401474126 -0.4414811981346688 1.3044321264507843 227 236 255 641.088074 158.976013 3
-0.53592199119948525 0.62525042402504949 1.3877286858016404 187 192 198 236.736023 461.376038 3
0.73918330572460866 0.67298744823122292 1.372925228056566 96 255 67 594.432068 476.92804 3
0.35604551830271514 0.68148759286555938 1.0998029612889377 132 147 166 508.032043 525.312073 3
0.71376543536920511 0.47482655954271136 1.6371904275035734 255 103 117 551.232056 397.440033 3
0.78306344817211526 0.62512671825260857 1.3558686159900626 128 142 255 605.491272 464.48645 4
-0.17903693967833068 0.87370736454397258 2.6953316160198177 125 146 168 360.806458 414.720062 4
-0.39692740178160912 0.09854066673444295 1.3158313930077981 163 184 255 265.420837 319.334442 4
-1.7607016467191787 0.72368700257104801 2.8384177132916379 255 133 168 143.078415 385.689667 4
1.0061707963757376 0.20571599212046582 1.2294821736868107 112 143 162 700.876892 352.512054 4
0.79741227586099761 0.64026928526608207 1.1838633853410041 137 255 97 646.963318 497.664062 4
-0.64745494919038071 0.48864374754099538 1.600462860372339 220 255 222 230.169632 404.352051 4
-0.31061858979410317 -0.19141212525571721 0.99542778269994692 238 245 255 265.420837 217.728027 4
-0.20800209347205456 -0.2217596888543869 0.97731740761573338 196 255 96 302.745636 201.139221 4
0.73760378514594382 -0.56673682799714076 3.0141084737101744 255 240 243 479.001678 215.654434 4
0.60028799044233705 -0.14820159133140065 1.8755977363520087 247 249 255 505.958466 257.126434 4
0.55834573742442295 -0.19876303356868169 2.1118775860578092 255 245 247 487.296082 250.90564 4
-0.33743654880659868 0.16272449003808642 1.0472033503508946 255 160 176 263.347229 346.29126 4
0.73541812287434416 0.66204263857651191 1.3531205471098575 76 99 255 593.049683 476.92807 4
0.83247970829354778 0.45030932816819191 1.3425381679694075 131 146 163 624.153687 418.867249 4
0.67628850216758973 0.46032269661641145 1.4277196309492091 177 255 134 566.092896 412.646454 4
0.17107345922093198 0.13300777646255324 4.005612691022403 143 255 42 398.131256 298.59845 4
0.73349722311674381 0.37769000875150055 1.6983955067586054 199 207 255 549.504089 373.248047 4
0.61405621172035652 -0.42306264235815716 1.9058457162662243 232 237 243 512.593994 201.553955 5
0.2705900326922257 0.18657675856924452 3.4687748838588481 255 95 153 415.5495 308.551727 5
0.12197999480971777 0.11989361105084748 3.4871152896311424 143 255 42 398.131256 298.59845 5
-0.37269147120337642 0.086699187061695437 1.2030654774123297 171 255 135 266.250275 318.505005 5
-0.88431038984835864 0.59311317168438715 2.012325443844432 221 221 218 216.483871 398.131256 5
-1.3818665578311213 0.19525240248422782 2.9081664992261018 243 248 251 204.042267 313.528351 5
-0.20477183345025862 -0.52136901549587744 1.0610321181150448 32 150 178 308.551727 94.5561752 5
1.0165350408641265 -0.43685545226351474 1.2311212540583405 212 223 235 704.194641 149.299225 5
0.81617892460551933 -0.48331392371734883 1.4756123875940306 241 255 233 594.708557 161.740829 5
0.79414830288134453 0.67514949242900169 1.2302437928364869 255 142 155 627.056702 497.664062 5
0.78080481805670265 0.69321701815002523 1.4523247212980763 98 255 71 594.708557 475.269196 5
-0.23046405709024631 -0.067516047758017284 1.0907622748156989 255 107 176 303.575073 266.250275 5
0.35564174530354009 0.67883510750718656 1.096291990904799 255 134 149 507.61734 525.035583 5
-0.56300804274861882 -0.77202708954773769 1.6946706681613257 255 181 205 251.320358 111.974419 5
-0.30536354607419813 0.15072170888925696 0.94592380466278403 255 158 174 263.761963 345.876526 5
0.93982008275001849 0.63958752914555139 1.1222847891521219 226 255 224 706.682983 502.640717 5
-0.33927609489121169 -0.26928533193616699 1.0764139464887341 242 255 233 266.250275 189.11235 5
0.36203184697364499 0.22291894692333561 3.0477282483414792 119 180 193 432.967743 316.016693 5
-0.37996478976512416 0.7433549740023726 2.7434790850352728 149 158 152 328.458282 395.642944 5
0.64014062209244327 -0.52151986423521435 1.8275729031021122 229 234 241 516.575317 182.145065 6
0.76305643222017894 0.61480415436894975 1.1197862883276111 255 124 139 647.958679 495.673431 6
0.78024373669469083 0.61953609020348765 1.3729236412006323 89 103 255 597.196899 462.827606 6
0.81286785994936928 0.53986642480012725 1.3413376974920519 255 133 148 615.112793 444.911713 6
0.6913526874998448 0.50650937766698012 1.1846214168638127 255 112 125 603.168884 447.897675 6
16.424329690398924 -26.689791803481157 47.682227429120545 255 165 193 519.56134 74.6496124 6
-0.45135577921755665 -0.62066047663071777 1.3161553715900354 226 255 181 250.822708 113.467415 6
-0.10315467002209378 0.54490791226555835 1.3942033066327051 255 100 122 355.332153 432.967773 6
0.53901022255808506 0.69932931730503944 1.3695355029420515 109 121 255 537.477234 483.729492 6
0.78859521922297393 0.69211561973111158 1.4459561428915508 94 255 63 594.210938 477.757538 6
0.86902340196477446 -0.43547535895868106 1.2842391892880736 227 236 255 641.986694 158.257187 6
-0.66455872735933985 0.49495026474895482 1.6518331556067638 223 222 255 229.920807 403.10791 6
0.54789948306653957 0.47377091811509486 1.4336411399483824 124 140 168 528.519287 415.051849 6
0.54027306550482779 0.60770152688973234 1.7982095257014548 132 156 255 501.645416 418.037842 6
0.18711636009275767 0.14186310102363517 3.8055135545081988 30 97 129 400.121918 301.584442 6
0.59318744561628889 -0.42870720484198344 1.8478689129661898 243 255 232 510.603363 200.060959 6
0.53047765422351523 -0.39617915275194471 2.0937586365329466 240 242 245 480.7435 214.990891 6
0.54824717043916849 0.58512042746661064 2.485779167003364 255 81 91 471.785553 382.206024 6
0.88670856206966464 0.53206240464483656 1.1583027963485364 178 255 139 674.83252 459.841614 6
-1.4730548912020174 0.66251272302655695 2.0596636662829528 255 203 193 107.495445 412.065857 6
0.94136746857337439 0.62735889570922865 1.1167341810218492 223 224 224 704.692383 501.645416 6
0.82330440437835639 0.66283558396393927 1.2314022143655183 66 74 89 644.972656 498.659424 6
0.72205221394757868 0.52356737900355332 1.3786155490615606 138 255 107 582.266968 435.953735 6
0.83527931483786833 -0.49401287467651311 1.5120485386121221 241 255 233 594.210938 161.243164 6
-0.2227570277035289 -0.39252282025666185 1.031414444535014 167 194 255 301.584442 143.327255 6
-1.4183157276329053 0.50247008942662408 2.2702277657762169 255 158 162 143.327271 372.650879 7
-2.2065617713487669 0.30833467528462133 2.7868939691295997 214 255 202 78.8299942 322.486359 7
-1.8146881181476018 0.59414453044819293 2.6881611906740206 155 168 179 128.994537 372.650879 7
0.75071446424700894 -0.16161792488838522 1.1765053971462889 255 245 245 623.473572 229.323624 7
-0.33505299069084415 -0.65001340939978802 1.2668778015777784 255 192 208 283.07135 93.1627197 7
0.83527931483786833 -0.49401287467651311 1.5120485386121221 255 233 236 591.224976 161.243179 7
0.68202045610522966 -0.48920855072966429 1.5747089899834723 226 232 239 548.226807 168.409531 7
0.88987888576945484 -0.21244691684484063 1.5467936508114741 249 255 247 598.391357 240.073166 7
-0.75997366410126954 0.40406644917023232 1.9379005017309447 195 202 255 229.323624 372.650879 7
0.21936514202932123 0.51125976086422842 0.90406288122759193 145 157 176 480.146332 501.645416 7
0.61915543239023618 -0.37700771327800786 1.9447854353273772 235 239 244 508.811798 211.407715 7
0.53047765422351523 -0.39617915275194471 2.0937586365329466 255 239 241 483.729523 211.407715 7
0.57590424262868201 -0.42082912737670375 1.775601107562748 232 236 243 508.811798 200.658173 7
-0.12283601756332185 0.5841400010221437 1.5219141455638283 145 255 99 354.734985 433.564972 7
-1.2346863669619421 0.079570236100449165 2.418428512846126 247 250 255 193.491806 300.987244 7
0.54977737859418019 0.59812453610928973 1.7810316454459212 118 147 255 501.645416 415.649078 7
0.82228672928916158 0.56226356698042035 1.2832629131959665 172 255 145 630.639954 458.647247 7
0.56785844537293473 0.67934025320233749 1.2687142903072628 255 116 133 555.393127 498.062256 7
0.74224580619784786 0.65573225192625573 1.3415862510514787 96 255 67 594.808167 476.563141 7
0.85157127552715028 0.67787142116736077 1.2855098387459316 71 84 255 641.389526 498.062256 7
0.70307757307586494 0.48106256016516535 1.6532487723329359 145 163 182 548.226807 401.316345 7
0.31900897329257627 0.32378373938535254 2.3236030263199039 174 195 255 429.981781 343.985443 7
0.25120215677306112 0.17816581739511941 2.1777930267695291 180 198 255 429.981781 315.319977 7
-0.99135656643432046 0.4786195943932281 2.2999262091701791 179 255 178 214.990891 365.484528 7
0.84582339231064596 0.61375321825992746 1.6201844859283963 129 144 161 584.058594 433.564972 7
0.92819634859137379 0.49608372453290578 1.511131128860451 255 123 137 623.473572 419.232239 7
-0.31576516080652928 0.53741366871127461 0.9713655482198309 145 168 255 261.572266 494.479065 7
1.1406077109045023 -0.32746423427890481 1.8257741655345807 245 255 236 630.639954 218.574081 7
-0.25250059366033062 -0.33216549238092963 1.2025178154409808 107 179 200 300.987244 182.742264 7
