ply
format ascii 1.0
comment Written with hapPLY (https://github.com/nmwsharp/happly)
element vertex 102
property double x
property double y
property double z
property uchar red
property uchar green
property uchar blue
property float ix
property float iy
property uchar octave
end_header
-1.3987559192224168 0.12556734651796136 2.3295114593337907 247 250 255 153.600006 309.600006 1
-1.4090028919024 0.23955936209807033 2.2032497417150054 255 242 247 139.200012 328.800018 1
0.65901154356516156 0.064247090609566682 1.2652874094396056 248 251 255 585.600037 307.200012 1
-1.4809240997879303 0.12553280478795542 2.4762378751209635 250 255 243 154.080002 309.600006 2
-1.3882526053987569 0.72326647406467048 1.5607744418984968 255 74 77 43.2000008 465.120026 2
0.54816929626387645 -0.033431701332695074 1.6306226747175954 251 255 249 514.080017 279.360016 2
0.41350101512075232 -0.26605625925369059 1.1925305915879107 255 232 237 515.52002 201.600006 2
-1.870883093196992 0.66057699697923355 2.5418290282101905 184 186 191 100.800003 387.360016 2
-2.0615750074559314 0.71341478862617791 2.6986692655835576 213 255 215 90.7200012 390.240021 2
-1.4270814742721893 0.23176385941344982 2.2261805779161126 255 242 247 139.680008 328.320007 2
0.60460084316756912 0.0033144220590783369 1.8589807498146689 249 250 251 508.320007 289.440002 2
-0.20831380252271936 -0.02615185378831375 0.52594868339650702 178 197 255 233.280029 269.568024 3
-1.646137347222814 0.82406975096338786 2.1116762128899786 88 92 92 84.6720047 435.456055 3
0.72219490511689366 0.6531461957991076 1.0302759655932334 226 226 255 653.184082 533.952026 3
-0.29197754368141871 0.602551204081054 1.5038237833823853 255 32 94 307.584015 440.640045 3
-0.40323979513098562 0.76959568754044638 2.4598016941764342 60 127 153 324.864044 407.808044 3
-0.26759090666227348 -0.15581157944717161 0.54984880866506547 255 228 234 195.264023 179.712021 3
-0.22231095133805123 -0.35947496261267664 0.56795301753853611 158 182 255 233.280029 44.9280052 3
-0.21544809138763998 -0.24407318399086342 0.54687728053947282 164 187 255 233.280029 117.504013 3
0.71201831604621257 -0.20473303175277202 2.19894200479881 248 255 245 506.304047 252.288025 3
0.64532446635298779 0.10415412057191784 1.2275120054116968 255 245 249 587.520081 317.952026 3
-0.28909638989097708 0.66543692924757136 1.7313340321007828 119 144 255 321.408051 433.382446 4
-0.28993530142436263 0.59971157403714326 1.5071104105606556 20 82 106 308.966431 439.603271 4
-0.21246846737767511 0.26443363607981485 0.54188323237656455 144 162 185 232.243225 474.854462 4
-0.21164081393005185 0.26193375292251819 0.53457028142862839 185 255 146 230.169632 474.854462 4
-0.21050428920217223 -0.027068517331881259 0.53574946837951298 196 255 163 234.316833 269.568024 4
0.8063773278156865 0.50587582929260144 0.92827665837181961 255 228 229 719.539307 497.664062 4
-1.795828260975127 0.7357437806454048 2.123105947725672 133 146 166 60.134407 418.867249 4
-1.3043630422817749 0.66102006690030779 1.8904050741211904 52 255 32 118.195213 420.940857 4
0.69015972693039118 0.669436479106432 1.2312349771686844 224 224 255 601.344055 499.737671 4
-0.18010502220468982 0.68052918342467128 2.3432868239620221 138 168 185 352.512054 398.131256 4
-0.22336752877581434 -0.36453517353916187 0.58070849345359843 181 255 136 234.316833 45.6192055 4
-0.21998386649240453 -0.24535033093691727 0.56304357854771858 186 255 144 234.316833 118.195213 4
0.86261113554420965 -0.083615595645462781 1.0419513667428424 84 101 121 700.876892 259.200043 4
0.5359540288146063 -0.36732549126664493 1.6642919899243722 236 243 255 505.958466 203.21283 4
0.60327172147015262 -0.36330946270044873 1.3345078271008628 255 228 234 555.724854 186.624023 4
-0.98512492892322134 0.70254793100673552 1.1789756045564284 21 255 13 66.3552094 518.400085 4
-0.97037954686540262 0.052488748259636453 1.7206713560746794 246 250 255 165.888031 300.672028 4
-1.9962779435444133 0.46394126741394481 2.4025471893029096 179 195 202 64.2816086 362.880066 4
0.74165323852662568 0.44519060308103503 0.94522951962432078 126 145 174 684.288086 468.633667 4
0.69117002482603396 0.63150991715462257 0.97646587289008391 227 226 255 653.184082 534.988892 4
-1.7416576615869777 0.4034995847957718 2.1069455849258691 157 183 196 64.6963272 360.806458 5
-0.18833249509908523 0.68412763450491598 2.3482519524160237 181 255 124 350.85318 400.619568 5
-2.1925866434003725 0.76905677594327693 2.9045579479514663 214 213 255 89.5795288 388.177979 5
0.59399706810764763 -0.32341365483261431 1.3102170540075351 255 223 233 559.87207 194.088989 5
-0.21442337221111618 0.0073712961353974982 0.54527955637100689 178 197 255 233.902115 293.621796 5
0.57036447524540823 -0.020141452339172472 1.2627767363818982 250 251 255 557.383789 281.180206 5
0.49138650106361381 -0.16317755720022142 1.2594873680079264 242 245 247 532.500549 238.878754 5
0.5846410133807447 0.089574564618152719 1.3306514397384461 193 206 255 557.383789 313.528351 5
-0.21688947174416384 -0.027924263308809927 0.55207184440391543 178 197 255 233.902115 268.738586 5
0.49323560570781333 -0.0017214578000061542 1.5761067395294894 250 251 255 505.129028 288.645172 5
-0.22685981212138095 -0.098904626206516522 0.59863737005791418 173 194 255 233.902115 221.46051 5
0.67772613926230929 0.62455116654304699 1.0252753867981248 255 226 227 639.498352 520.05896 5
-0.21315557765097903 0.21378386486478093 0.53619384354076072 163 186 255 233.902115 437.944397 5
-0.98459837082084345 0.69819032616433441 1.1720507373751259 255 13 13 67.1846466 517.570618 5
-1.1212351845930164 0.7020933821898161 1.3668790721522797 76 75 255 69.6729736 485.222473 5
0.35691185018885885 0.2501625716346062 2.477404441050636 252 255 245 442.921021 328.458282 5
0.26580783102534933 0.21593286917426216 2.9199628273783178 255 207 238 423.014465 316.016693 5
-0.21725507101895314 -0.23037299909051701 0.55494221838540447 165 188 255 233.902115 129.392654 5
-0.30633878169784046 0.64630169211340105 1.6350838817982982 28 73 95 308.551727 437.944397 5
0.46209724283276077 0.69934087253787569 1.6862410784033459 190 191 192 492.687439 447.897675 5
-2.0634427937588899 0.68328752700964879 2.3857596658413858 178 180 255 49.766407 398.131256 5
-0.1915824320828845 0.68269885150535659 2.3224244108185861 174 179 255 349.360199 400.121918 6
-1.4727429207086682 0.72530836472446192 1.8914143965507737 255 85 89 83.6075668 435.953735 6
-0.22814976336474668 0.56953095168880741 2.6241809295795928 151 176 194 352.346191 373.248077 6
-0.14915757582829192 0.77245034930644207 1.753273077432512 148 172 189 352.346191 450.883667 6
0.55840940503098402 0.64132753840640777 1.3487910592002308 121 255 119 546.435181 471.785553 6
0.57273112125995107 -0.35528593802811126 1.277838763265323 255 230 235 555.393127 182.145065 6
0.53356002647807332 -0.17499736845721597 1.3559611135483021 255 242 245 531.505249 238.878769 6
-0.2230363146037857 -0.32389053268359191 0.57313628796958138 141 161 185 232.906799 71.6636276 6
-1.1904680643284924 0.74063926977665118 1.4564904643995327 58 61 61 68.6776428 486.715485 6
-0.21128118313788891 0.0077724193077444714 0.5342484089436903 163 180 199 232.906799 295.612457 6
-0.21431372113611014 -0.19797878850512585 0.53194466209147873 150 169 192 232.906799 146.313248 6
-0.2226103245231954 -0.23775393971871062 0.56541639009183697 149 168 191 232.906799 128.397339 6
-1.3809776079083242 0.23468778462320244 2.4315169010843878 243 247 251 164.229156 328.458313 6
-1.3308781349461101 0.1191294378853773 2.1894042079368266 246 250 255 149.299225 310.542389 6
1.2198470302304312 -0.87029355449725032 3.9467970374606942 255 231 236 507.617371 203.046951 6
0.26404637607354586 0.1782285374616227 1.701113626720117 249 252 255 441.92572 328.458313 6
-0.31767066382210496 0.64301307049204093 1.6725085717456665 255 28 83 307.556396 438.939728 6
-2.0822124165512799 0.48643919532214069 2.5263208632521117 216 255 189 62.705677 364.290131 6
0.83383660989475872 -0.46311032638772864 1.0367704783463667 221 232 255 689.762451 116.4534 6
0.16399695164263473 0.16446296472680599 3.6306370527018679 102 180 194 408.482697 304.570435 7
-1.6706757360602098 0.56763055497903459 2.2898586787062287 255 100 102 107.495445 383.400421 7
-0.19009321333526508 0.4892340746379078 1.7402611438014164 99 156 175 340.402252 394.149963 7
-0.43315344974769676 0.55590282721815409 2.3176487526619134 9 96 126 308.153625 386.983612 7
-1.6562184599157264 0.44554934650196243 2.1504904989467981 163 255 134 82.4131775 361.901337 7
-1.9253834552034297 0.49176230270295163 2.5796850323449778 175 168 255 93.1627197 358.318176 7
-0.0044497517059032266 0.11401059501985489 1.0645877059405162 255 139 174 379.817261 322.486359 7
-1.1997008787381871 0.74391435433443487 1.4774507169894191 42 47 53 68.080452 487.312714 7
-1.566958969621683 0.35295799069423262 2.3426136942002707 237 237 244 128.994537 340.402252 7
0.59753570708577919 -0.37833743602084513 1.3539167951323305 255 230 235 555.393127 182.742264 7
-1.3934557958042886 0.22443717145974068 2.4389327733044412 247 251 255 161.243179 326.069519 7
-1.3247152834910483 0.11944427906479577 2.1658292696131021 255 243 246 143.327271 304.570435 7
0.64206407114824615 -0.49322182358267574 1.3801299749199121 236 255 218 566.1427 146.910446 7
-0.22794400630719291 -0.033363310486969222 0.58940700189583772 167 182 200 232.906799 268.738617 7
-0.16414621746760316 -0.090757337272241501 0.6261427466099434 147 255 34 290.237701 236.48999 7
0.53208565232423077 -0.36672601106073133 1.6385909159976393 236 243 255 505.228607 204.241348 7
0.3438404112025002 0.3957178053602407 2.1795631351259539 255 135 133 447.897705 365.484528 7
0.32993011806518324 0.22994024717217854 2.0719452918220975 244 246 250 440.731354 329.65271 7
-0.17627380342957144 0.61050837682571102 2.058964045796575 255 126 168 347.568604 401.316345 7
-0.34872057878686569 0.37246751817018908 2.0646843287820644 255 34 89 315.319977 354.734985 7
0.60150755786912113 -0.11807261501735422 1.4136769001484399 255 246 247 551.809998 254.405899 7
