ply
format ascii 1.0
comment Written with hapPLY (https://github.com/nmwsharp/happly)
element vertex 164
property double x
property double y
property double z
property uchar red
property uchar green
property uchar blue
property float ix
property float iy
property uchar octave
end_header
-1.8820054152801671 -1.5421956090392714 3.4468165879478843 255 172 189 175 117 0
-1.9884866425650145 -1.7615280113686886 3.4145156295806283 143 169 200 160 91 0
-0.67724115731464996 -0.093194998836022808 6.8288558471994909 156 255 138 346 283 0
-1.9139180990769007 -0.26143303189154077 3.4348791785409638 240 243 255 169 259 0
-1.1452321256758866 -0.42833236624978782 3.4324527765497099 217 218 218 256 241 0
-2.0546164044531121 -0.95413870400732592 3.4438747982167945 232 255 221 154 181 0
-2.0892760594774318 -1.1088507483924135 3.4925175777915638 226 255 208 154 166 0
-0.63086372917190991 0.29393769448091073 1.1507059245439795 255 178 190 175 385 0
-1.9096082663038922 -1.9025103142045747 3.2926927481905066 162 196 255 161 67 0
-1.9210064771612387 -1.3518000320203045 3.5010786827874165 255 193 204 175 139 0
-0.3670582282975885 0.40122428729833487 0.78017309281730407 128 133 255 205 487 0
-1.1156595633379327 0.34903059588013047 1.5005600022445933 161 148 255 97 376 0
-1.1859918658105251 0.26338752829902723 3.7098829773105084 157 255 163 262 316 0
1.323464487845873 -0.12607866571892781 1.3980581833861323 46 97 130 748 253 0
-2.0719041854522313 -1.047872879249647 3.466954598094246 228 255 214 154.800003 171.600006 1
0.34512238957990826 -0.36593560250863955 0.9641827778751042 255 191 203 519.600037 141.600006 1
0.25305712267090974 -0.38830725434661351 0.9546392166164539 255 182 198 483.600006 133.200012 1
0.3566720814599984 -0.195906928693803 0.94179459202241 223 234 255 529.200012 207.600006 1
-2.0666609395116859 -2.0760381929104295 3.4801196249101212 119 150 190 156 57.6000023 1
-0.29012844693538709 0.36204244805667063 1.1911976434287344 129 140 255 289.200012 403.200012 1
-1.9238700826799811 -1.7592371677187555 3.4787694309806496 255 151 174 171.600006 93.6000061 1
-0.35792488251369647 0.42741690798617299 0.85873522664099644 255 178 184 223.200012 478.800018 1
-0.39524567593089821 0.32788189013729052 0.57887288241640744 106 119 255 121.200005 505.200012 1
-2.0189260584669908 -2.2533252788328997 3.4685663838828167 105 139 184 160.800003 37.2000008 1
-2.0505638400563311 -2.3110229219503049 3.4633203193275341 139 182 255 157.200012 33.6000023 1
-0.79658663743634328 0.29768260883104902 1.2068755157919742 120 98 255 129.600006 381.600006 1
-1.9139180990769007 -0.26143303189154077 3.4348791785409638 240 243 255 169.200012 259.200012 1
-1.9066562692031837 -1.0498425355973342 3.4689892326781697 227 255 207 174 171.600006 1
-2.1389552222413326 -1.5280940055848649 3.5721602863428337 222 255 206 154.800003 123.600006 1
-0.36415539170232991 0.40645275764574262 1.1393668659596203 211 255 211 262.080017 423.360016 2
-0.98448384905025277 0.31024106938579454 1.1370160974446712 175 177 177 48.9600029 394.560028 2
-2.1351161286164588 0.16494471242141001 3.4544740320337151 225 255 223 146.880005 303.840027 2
0.26089889504735064 -0.47052491751863357 1.0158406136707441 255 171 188 483.840027 109.440002 2
-0.35145440809883999 0.38906517324792544 0.59634353582134403 30 52 53 156.960007 540 2
-0.33283148820984287 0.40784303317866455 1.3690152334376409 129 140 255 289.440002 403.200012 2
-1.9362579114653862 -1.574874362853544 3.5113930113553988 211 255 173 174.240005 115.200005 2
-0.65520921462538384 0.30123112923457451 1.1892183120756343 179 255 170 174.240005 385.920013 2
0.19913006654833809 -0.63333910060999843 4.3585833317113689 155 174 255 401.76001 228.960007 2
-0.38258785867131428 0.33793407365505307 0.56400001578894654 70 95 105 120.960007 516.960022 2
0.34239998026528151 -0.23189447884873093 0.96282645872866901 255 207 218 519.840027 192.960007 2
-1.3014080423491796 -0.16889300059081774 3.2838942638272433 57 77 97 228.960007 267.839996 2
0.35896175468847802 -0.27331825758846806 0.9640561735021953 255 213 220 527.040039 180 2
0.23459689629711011 0.37761552972887918 0.70176359120096188 0 0 13 512.640015 493.920013 2
-1.8770607414902019 0.097028986857028487 4.3300331121784907 89 107 127 216.000015 298.080017 2
-0.36235235127377452 0.45096100908955805 2.5355720888497566 255 142 150 331.200012 358.560028 2
-1.7539067714630061 0.29183453054165187 3.2326914285901518 146 165 255 177.12001 322.559998 2
-0.67344462181836739 0.28296186489713393 1.9746618167518313 100 127 144 252.000015 339.840027 2
-1.2876411250464077 -1.4355935107825923 5.3602867177969911 234 255 223 290.880005 187.200012 2
-1.9754023404179586 -0.90671182754331703 3.5753599319870339 232 255 222 174.240005 188.640015 2
-1.9500164971619083 -1.1269627353560145 3.5510805216134718 225 255 203 174.240005 165.600006 2
-2.0626900559512737 -1.1116368368443321 3.4773892950448104 205 215 225 156.960007 165.600006 2
-2.003123308139791 -2.0954413279573263 3.4495018236906732 146 188 255 161.279999 54.7200012 2
-1.8751138071418296 -1.3237048178108966 3.4217372601427054 194 205 219 172.800003 139.680008 2
-0.67963091246710428 0.33487578213730423 0.87681863419174055 255 26 50 87.840004 437.76001 2
0.15985120037384526 0.4493416783121939 0.7270343971509694 6 0 10 468.000031 525.600037 2
1.1484737355860928 0.071970247066398707 2.3949747975388487 105 121 144 568.800049 299.52002 2
0.3421389188321704 -0.27238534274460657 0.97054864086088299 213 221 230 520.128052 183.168015 3
-1.4140766998221412 -0.18704464327675727 3.5282224461469607 58 77 98 228.096024 266.11203 3
-0.40724036228814819 0.3296975697334335 0.59307704008995632 63 94 105 120.960014 502.848053 3
-0.35086330521257469 0.29936091820305671 0.58019051101850627 93 121 136 152.064011 487.296051 3
-0.42707482453470424 0.31820976899573727 0.61396522767645367 255 78 108 119.23201 489.024048 3
-0.26273635541458229 0.49012891932270447 2.3444543267126394 132 255 175 342.144043 368.064026 3
0.13110083783670778 -0.44828777015960553 3.7599994413969702 255 138 158 395.712036 240.192017 3
-0.035787646920282246 0.38718859118517296 2.716544261184473 174 175 255 381.888031 345.600037 3
-0.25429255290901231 0.42253211870081775 2.8304954206437416 209 205 255 345.600037 345.600037 3
-0.20486249828319592 0.45391993327786695 1.2868408052589961 255 71 76 323.136017 425.088043 3
-0.72790928336139094 0.26851012181275385 0.83560508732090111 255 188 190 51.840004 409.536041 3
-1.592806381382061 0.086350512358734588 3.6722535307229451 89 107 127 216.000015 298.944031 3
-1.9869640886367632 0.36737161860371759 3.6896519886543935 130 143 162 176.256012 323.136017 3
-2.0594031708010561 0.44737646668611764 4.7965012170031986 255 59 64 219.456024 323.136017 3
-1.3224106959833244 -0.72567651944416955 3.431776251068698 255 77 96 235.008026 205.632019 3
-1.3195624723571191 -0.56711199749135377 3.4313698980950949 255 86 99 235.008026 228.096024 3
-0.10975448136242516 -0.65346367716039555 4.8352426299527833 137 159 255 373.248047 235.008026 3
-1.9310321325639186 -1.0889470285365008 3.4826777508614217 203 213 225 172.800018 165.888016 3
-1.8127179128242679 -0.22464498427091212 3.4748227107981782 255 240 241 183.168015 264.384033 3
-2.0309751545452119 -0.34956377780530073 3.4186946251437895 238 241 255 157.248016 250.560028 3
-1.8424807515833428 -1.3115760554681299 3.5081439809987414 255 190 204 183.168015 145.152008 3
-2.105962293986237 -1.7757642578997499 3.5263860174217805 170 201 255 153.792007 93.3120117 3
0.44562038967770196 -0.47734519866568026 0.99076902166995118 147 173 204 556.416077 100.224007 3
-0.20231204594045726 0.4496629680727301 0.81250241561015213 7 18 27 288.576019 499.392059 3
-0.37787830645498421 0.30609861034105601 0.5077763949590326 134 141 255 101.952011 520.128052 3
-0.6360288761928643 0.31739713735350999 1.1793835612680341 189 180 255 177.984024 390.528046 3
0.34651282477335665 -0.019883638464111425 0.9605569592207106 117 143 255 521.856079 279.936035 3
-1.2932612617711339 -1.8841262432405173 5.7716807809629049 221 255 184 298.944031 160.70401 3
-1.7006495465241906 -1.995687274118453 5.9033602299877295 201 220 255 273.024017 157.248016 3
-1.2863375878325272 0.24823689218665695 4.0092442951973295 255 129 132 263.347229 313.113647 4
-0.20840404832626525 0.45273002456267591 1.296355146547054 255 71 76 323.481659 425.088074 4
-2.2482167151653139 0.17408830381386903 3.6239108685190917 219 227 255 145.152023 302.745636 4
-1.5317645180040813 0.26751998414375905 2.8593010367893186 169 255 149 174.182419 321.408051 4
-1.3461341762723169 -0.73592757192472791 3.4905062838804182 118 255 73 234.316833 205.286423 4
-1.643426513492293 -1.7399148851032782 6.490474338649868 233 255 223 290.304047 186.624023 4
-1.3997083428624886 -0.18713758155783697 3.4820751435190433 57 77 97 228.096039 267.494446 4
-1.6666548096728286 -0.20150479731378634 3.2601371054016237 240 240 243 184.55043 263.347229 4
-2.0025316619774252 -2.1026480820686322 3.4413752927160748 146 188 255 161.740829 53.9136086 4
-1.8302704127346319 -1.2927028336396806 3.4983913383581915 191 204 220 184.55043 147.225616 4
0.34586060585186074 -0.23319084526010186 0.96403529431467572 205 218 231 520.473694 194.918427 4
0.35553170273468726 -0.27399767216569887 0.97209948587273232 213 220 230 524.62085 180.403229 4
0.43665225193104229 -0.49143107964436994 0.97868379339754141 255 148 173 555.724854 99.532814 4
0.26874007704904856 -0.50937895623360085 1.0348202797550459 255 164 182 487.296082 97.4592133 4
-0.34465594396012644 0.41014642591626299 0.82183462998137324 255 188 194 223.948837 476.92807 4
-0.3439566478691265 0.37847144448660297 1.0742492379893926 255 209 210 259.200043 423.014465 4
-0.4126605403356236 0.43841889308752591 1.0972959844370054 176 179 183 240.537628 443.750458 4
-0.3274186935703467 0.42184705377228637 0.77005608927802416 173 165 255 217.728027 497.664062 4
-0.35214453588798156 0.30054341775381732 0.64288342293856648 187 189 189 172.108826 468.633667 4
-0.34322383422099589 0.4209767693969923 0.73249460733995075 255 102 131 203.21283 508.032074 4
0.16113159697295443 0.4560324769966842 0.73956930366567364 9 0 13 468.633667 526.694458 4
0.26218959136550157 0.053302462888451634 0.35200052892745948 255 40 97 671.846497 344.217651 4
0.26098048435493271 0.10419340373941657 0.34973193833312177 255 25 82 667.69928 402.278442 4
0.068468658901595147 0.44626266475384513 1.7103987857583509 215 216 214 400.204865 389.836853 4
-1.7006495465241906 -1.995687274118453 5.9033602299877295 255 183 202 271.641632 157.593628 4
-1.2746564010915447 0.35938390691618388 1.8820831074044633 167 150 255 121.927696 360.806458 5
-0.3697809055530783 0.30024122397371178 3.2367207734885097 96 112 132 340.899902 323.481659 5
-0.76199562652518593 0.22848904000446926 2.3969369657968365 150 255 114 266.250275 325.969971 5
-1.9489623329070378 -1.0951878082607027 3.5052523879617863 255 205 214 171.694107 166.717468 5
0.33622514831589279 -0.019892149814636967 0.92709313876145272 123 154 255 525.035583 278.691895 5
17.399937063037001 -12.496275727480326 27.902647256504096 255 160 182 619.591797 116.951057 5
0.4069965890690227 -0.764377008121784 4.0388625912134604 224 230 236 420.526154 216.483871 5
0.35107509244297364 -0.23556814502152879 0.9691609050922656 231 255 205 522.547302 194.088989 5
-0.35501901216322174 0.30242933198022481 0.58675973577660712 255 109 137 151.787537 485.222473 5
-0.96115844031183784 -0.61134506938349586 3.1490821563244755 255 212 215 263.761963 211.507233 5
-0.1981598525263415 0.44233907107772347 0.79710491754663826 255 20 28 291.133484 497.664062 5
-0.34370294459245665 0.29441073794652017 0.62543683238574654 255 191 192 171.694107 467.80423 5
-0.47213191192544945 0.37916350208877136 1.0596313922369278 255 93 106 211.507233 423.014465 5
-0.85245481864643979 0.41460575922083398 1.2501049345071649 156 142 255 121.927696 420.526154 5
-0.23540240422815883 0.46902074085058365 1.531706530608943 255 102 103 323.481659 408.084534 5
-0.25419230081549538 0.46458879154189536 2.2541420967892072 175 183 131 340.899902 368.271423 5
-0.26122674692232595 0.40313893630357678 2.7844053174040568 202 197 255 345.876526 343.388214 5
-0.29096677867879484 0.4935713677313609 2.4185657626665829 167 177 113 340.402252 367.276093 6
-0.29850879467841951 0.37135862443391066 1.7799173433189335 96 108 118 316.514374 367.276093 6
0.92331878913108056 0.3632931978231882 1.2512954219805381 28 84 109 668.860535 400.121918 6
-1.9402552424024329 -1.0927933925355384 3.4848084092747316 226 255 206 170.201126 167.215134 6
-2.0980100409129174 -1.7698974574604014 3.5175786230581561 255 148 172 155.271194 95.551506 6
0.34992100855500019 -0.23915154336280386 0.96055873969383287 218 231 255 525.533264 194.088989 6
0.34027762248752769 0.026501681478981118 0.68895437821250161 122 139 164 576.295044 298.59845 6
-0.18514203781556926 0.42856539057894266 0.78145264389939717 13 22 255 289.640503 498.659424 6
-0.35265483474878345 0.4117956629644498 0.83973971335034703 255 187 198 223.948837 474.771545 6
-0.30806665384910459 0.40030091210096963 0.72755038913179781 172 255 178 214.990891 498.659424 6
-0.35362684660402288 0.30068542134408638 0.63479230825134425 188 255 186 170.201126 468.799591 6
-1.2082236028101514 -0.1717595933544753 3.0064936394737765 106 255 69 226.93483 265.752625 6
-1.1401160328720827 -0.42143209408152449 3.4044476303666555 219 219 255 253.808685 241.864746 6
0.071006950498556987 0.45035981885788828 1.2873619284730937 218 255 220 406.093903 424.009796 6
-0.37843580813117361 0.41221912963606588 1.1908469025872179 255 212 213 259.78067 421.023834 6
-2.0137610750387838 -0.3406537389829975 3.4250473915569604 238 241 255 161.243164 250.822708 6
-0.20892166615240959 0.46472301996366766 1.3297492232395907 102 121 255 325.472321 421.023834 6
-0.41753391588636379 0.31512898359484554 0.60312706791730952 255 78 108 119.439384 489.701477 6
-0.53028844242548745 0.3230427364538615 0.67981780209900333 190 189 255 89.5795364 474.771545 6
-0.39514965062336072 0.3044640147604904 0.67169555783284629 255 196 196 155.271194 465.813599 6
-2.5770568457668803 0.1708762781865904 4.0525491670490377 255 228 224 143.327255 301.584442 6
0.44296766920644426 -0.48520428612918542 0.9917348182391168 255 149 173 551.809998 100.329086 7
-1.2399054349982266 -0.41835306337118994 3.6079968627405212 218 255 217 254.405899 243.656357 7
-0.21013764951373326 0.45718379205138471 0.83465808796646179 44 255 4 290.237701 498.062256 7
-0.32222103599229124 0.38675831906866998 0.78669266655846126 200 183 255 225.740448 472.97998 7
0.34819836387288605 -0.27676214560462253 0.96767433757949806 255 217 222 523.144531 171.992722 7
-1.4890809793057587 -0.35799876600765962 7.1149642575964114 110 96 115 304.570435 272.321808 7
0.080494292626752229 0.46331309971336543 0.83881736112650507 255 6 6 419.232239 501.645416 7
-0.42091475591556016 0.31531222918450169 0.60682039133248777 121 255 73 118.244995 490.895874 7
-0.49644814318981179 0.37409114610024868 1.0843376659776593 255 97 111 211.407715 419.232239 7
-0.2228392971479205 0.41081053934468836 1.9332321970152906 183 188 149 340.402252 369.067719 7
-0.21590583992838397 0.46314571128424709 1.3608018824021724 101 255 69 322.486359 422.81543 7
-1.3233405591878515 -0.70959920804141374 3.4162926125141952 79 94 115 236.48999 207.824539 7
-1.8116313549363778 -1.8992794520611533 7.0229081099891619 232 255 220 286.654541 182.742264 7
-0.37057703829728572 0.38136453377122048 0.87811553545083565 114 136 255 225.740448 455.064056 7
-0.33662483138287413 0.36924328279241364 1.0587400359296006 215 214 255 261.572266 419.232239 7
-0.37071941714312118 0.48199783076541663 3.348781376396067 185 188 184 340.402252 343.985443 7
