ply
format ascii 1.0
comment Written with hapPLY (https://github.com/nmwsharp/happly)
element vertex 182
property double x
property double y
property double z
property uchar red
property uchar green
property uchar blue
property float ix
property float iy
property uchar octave
end_header
-1.2749874817889295 -0.4890739609685425 2.4665448631116815 231 235 240 184 211 0
-0.80769319344454926 -0.54090944206145375 2.6147144921266987 230 231 255 265 210 0
-0.90428548943349973 -1.8945694473320196 5.191233299397024 189 209 227 316 148 0
-1.1428131632758181 -1.9544619479228902 4.9903344810679977 255 183 205 295 139 0
-1.3677577494635544 -0.84429337837796703 2.6464532661657887 214 223 233 184 166 0
1.5251140140793389 -0.84326363457616904 2.096334812759324 208 217 229 664 133 0
-0.86959953859749328 -1.5281689156033733 5.1010210563419323 255 205 220 319 172 0
-1.2959683657949261 -1.1957330166458209 2.5124891088276118 255 180 199 187 106 0
0.42197105220847275 -0.71163852930403282 4.6379935834523609 255 139 160 419 229 0
1.5708937180197888 -0.70941875553698097 1.8574717171703443 223 231 255 709 141 0
-0.78297716605493228 -0.59084913309237486 2.5269037222286594 231 231 255 265.200012 199.200012 1
-1.4389802918822152 -1.3068234651007384 2.4483705754495335 255 163 187 159.600006 85.2000046 1
-1.3019355327505631 -0.97641504439414128 2.481782764115871 255 202 214 183.600006 139.200012 1
-1.3112477496180697 -1.0333013748628215 2.5102134543113035 225 255 199 186 129.600006 1
-1.5266810992515021 -1.066120493191306 2.5985391690078017 255 212 219 159.600006 129.600006 1
-1.0266689093246204 0.41247432929610961 1.1752928239020402 219 211 255 49.2000008 421.200012 1
-0.49392898813811081 0.51749330060518417 2.7682264814579618 231 255 232 318 358.800018 1
-1.2920869871538172 -0.72006165924388288 2.4768310381848533 255 222 228 183.600006 177.600006 1
-1.2994286404911657 -0.80983169575668912 2.4931090384790759 255 211 220 183.600006 160.800003 1
-1.5604872549830229 -1.7492697294355293 2.6204073630212377 127 160 200 156 31.2000008 1
-1.4263604127825582 -0.16483595396817616 3.4494492136983004 107 132 255 225.600006 267.600006 1
-1.3220132841067649 -0.28767082015431555 2.5093263392970879 242 245 255 181.200012 243.600006 1
-0.76893540061157761 -1.0553804322263391 5.0876215032423584 255 232 236 327.600006 207.600006 1
0.84417962312269124 0.51029966772365598 1.4837551453284492 196 255 184 602.400024 421.200012 1
-1.2985144647833069 -0.72483164107442088 2.8942113742219666 89 109 137 212.400009 190.800003 1
-1.5013199088292826 -0.58571578243990452 2.5281774997340736 240 255 234 154.800003 199.200012 1
-1.5531697612147015 -1.3722241944206426 2.607330287935524 213 255 160 154.800003 85.2000046 1
-1.5658657481147964 -0.9238124878632904 2.6146342397207571 220 231 255 153.600006 151.200012 1
1.4137566478057511 -0.47620165212917631 2.1637903068229298 183 191 205 636 205.200012 1
1.3239837973327255 -0.72801314264914141 2.3870737268870017 232 255 204 598.800049 169.200012 1
-0.33972378262013003 0.37370544752224338 0.62234577834936622 255 113 143 175.200012 517.200012 1
1.1733550373717259 0.1020908058803915 2.2796449297702215 255 96 133 583.200012 303.600006 1
1.256676385457121 0.49954487266244818 2.188465162674158 255 112 115 603.600037 373.200012 1
-1.526243183572829 -0.44267253933836825 2.5678776065414679 244 255 240 154.080002 223.200012 2
1.1542138908588013 0.39447304774528674 1.8126102874019652 159 158 255 629.280029 372.960022 2
0.63198677940633163 0.48832500645568666 1.0829177273268873 117 137 255 609.119995 463.680023 2
1.5035410141694747 -0.73359640819554883 1.964331673656075 222 226 234 676.800049 144 2
1.5151510137532307 -0.8288407454346991 2.0769127195988966 220 230 255 665.280029 133.919998 2
0.37792371771622735 0.51042679835236948 1.0926212900752752 123 138 161 516.960022 468.000031 2
0.18736351573741072 0.41990502070114522 1.9200487117505936 221 221 217 420.480011 371.52002 2
1.1914854887059323 -0.58236271656050076 3.7566515780646563 244 255 236 506.880005 230.400009 2
-1.2742432873851111 -1.1055747541666203 2.4524497512190071 191 205 222 184.320007 118.080002 2
-1.2958240708723858 -1.2574279185574355 2.478512344095074 216 255 176 182.880005 93.6000061 2
-1.4019507526291344 0.2904982125872192 2.2911820207004654 198 255 203 146.880005 336.960022 2
-1.3810608317658493 0.43915887098888662 2.9902205370735846 168 165 255 205.920013 345.600006 2
-1.1841779007333404 0.35697292102638145 2.2853107683788783 231 233 234 184.320007 349.920013 2
-0.96830611900178276 -1.5652300259956515 5.086333462567878 219 233 255 309.600006 171.360001 2
-1.2610285731849 -0.56378160766123542 2.4245909864706574 239 255 230 182.880005 198.720001 2
-1.614501023804384 -0.71937342922627012 2.7491692187042629 255 233 235 155.520004 187.200012 2
-1.5310086654242738 -0.1203044924689986 2.5652466322674128 255 245 245 155.520004 270.720001 2
-1.4525267348036923 -1.7062249352643248 2.5307622189945187 127 160 199 164.160004 27.3600006 2
-1.4808534231059602 -1.0321423450368221 2.4996603264723483 255 212 219 159.840012 129.600006 2
-1.5248978679717644 -0.90630660059764045 2.5579218975143636 231 255 211 154.080002 151.200012 2
-1.4856459778756066 -1.2702448610477628 2.5159646511098326 215 255 168 154.080002 93.6000061 2
1.2846963508822069 -0.71724906795176291 2.3061086503217312 219 232 255 597.600037 168.480011 2
1.2420696065431811 0.49014041832798361 2.1724249363020065 255 112 112 603.360046 374.400024 2
-1.7662347752767795 -0.2079344311253904 4.2622818149829858 84 107 132 224.640015 267.840027 3
1.1654570959213251 0.1011255464780855 2.2773487221893589 167 255 102 582.33606 304.128021 3
0.7139181367577021 0.61340400863302635 2.255424675447109 169 255 131 506.304047 395.712036 3
1.4803112746553146 -0.81754540338440407 2.0323654323101947 255 203 213 663.552063 133.056015 3
0.38002915914048518 0.50956042952848579 1.0955781436541274 123 139 162 516.672058 466.560059 3
-1.3077176329379787 0.15671860730691753 3.3879262431060315 70 89 111 236.736023 307.584015 3
-0.42320884985285345 0.39391031512587715 2.2899540996640599 255 183 192 311.040039 352.512024 3
-0.55068897673192252 0.31040558961579018 2.5631267975844612 219 221 222 304.128021 333.504028 3
-1.2603141255469654 0.32577311263286152 2.1368631375577496 199 255 220 158.976013 345.600037 3
-1.3329600522166007 0.27877962974733927 2.1674228751827114 198 255 203 146.88002 336.960022 3
-1.5105397685131097 -0.45221689089254224 3.5006295016493043 255 99 120 219.456024 238.46402 3
-1.2649203624476262 -0.6419082569420218 2.424613643023787 233 238 255 181.440018 186.624023 3
-1.1980273690226424 -1.9905766457643388 5.1594387630314298 255 183 205 295.488037 139.968018 3
-1.31705319365979 -0.97882025142862705 2.4984480537486782 215 228 255 181.440018 139.968018 3
-1.5018757419754594 -0.98695458378274359 2.5263700444997315 217 228 255 157.248016 134.784012 3
1.5168092376055011 -0.30025645938618523 2.019893595237793 170 172 189 668.736084 231.552017 3
-0.2396943735428867 0.46936009222441699 0.76949171701721664 33 255 13 262.656036 521.856079 3
-1.0817996103765202 0.40146712520536354 2.284344953714041 230 255 230 202.176025 354.240021 3
0.65941073439964826 0.51134995310004283 1.1376481683181372 87 101 114 608.256042 463.104034 3
0.70162832479129589 -0.61878563758859206 3.6321899078931352 236 239 243 456.192047 221.184021 3
-1.1980273690226424 -1.9905766457643388 5.1594387630314298 204 224 255 293.76004 138.240021 3
0.95150909579345522 0.19466993632764185 3.020230362101513 142 155 255 505.958466 315.187256 4
1.1518113746715766 0.44903091538083639 1.9971807528746282 255 112 108 603.417664 375.321655 4
-1.2912124763866988 0.35826031363287764 2.2401275718672236 255 202 207 163.814423 350.438446 4
-1.2746746578115986 0.15624449907870111 3.2764448038346821 74 93 114 236.390427 306.892853 4
-0.57234784381570503 0.30254792348598614 2.6332845640657556 219 221 222 304.819244 333.84964 4
2.2861748400192665 1.1685703700907295 7.3580196951410031 194 197 255 501.811279 346.29126 4
-0.8276096395125716 -0.12419919736340695 2.5367613574224488 217 217 255 257.126434 267.494446 4
-1.3325553837405693 -0.2896286900705054 2.5215671341362476 240 242 245 180.403229 244.68483 4
-1.4198111982578148 -0.23642221324179064 2.4172991415333245 243 245 255 157.593628 250.90564 4
-0.85146983212395799 -2.0237745772331479 5.3957352690383846 255 186 207 323.481659 143.078415 4
-1.5204866781114919 -1.4348689097266811 2.5603350266521803 255 159 183 155.52002 72.5760117 4
-1.2908640733783523 -1.4624727976116549 2.4638404272604837 143 173 207 184.55043 62.2080078 4
1.2866790454212751 -0.68988597969062893 2.1746206507290999 219 232 255 609.638489 165.888031 4
1.2304814480922657 -0.68033527941540795 2.1994118242298986 255 204 218 599.270508 170.035217 4
0.82898439564214244 -0.65587338393200212 3.3917755751283529 233 237 242 476.92807 213.580826 4
17.291225156620285 -18.411621421775212 31.894443578603727 207 255 129 590.976074 62.2080078 4
1.476540403991937 -0.87926370509740581 2.2501550741255927 227 255 197 634.521667 141.004822 4
-0.13392760992747887 0.51076863885785784 1.0189233298378619 255 212 213 331.776062 479.001678 4
-0.072790756972010318 0.47945487645363571 0.90507630345117018 121 255 98 350.438446 493.516876 4
-0.54909993273974722 0.53596517377714326 2.1125532221504604 77 105 123 288.230438 383.616058 4
-0.88707750331448265 0.32860801889021818 1.8700096720929196 255 230 232 203.21283 354.585663 4
0.16980848653188607 0.35728262877029182 0.89031986003080688 157 255 197 458.265656 443.750458 4
-1.0647057361986372 -1.7633160900636706 4.5298811001614521 226 255 185 294.451233 141.004822 4
-1.0012698134870712 0.35184742296626081 2.1045907192328452 230 231 230 204.042267 353.341492 5
0.81657097858193228 0.35211389147133104 2.5711556810897824 150 255 119 502.640717 340.899902 5
0.70976650144949593 0.31949229773476207 2.7592244194057711 144 145 146 480.245819 333.434937 5
-1.5458319676432843 0.21327992540067137 2.4888485086429113 188 130 128 144.322586 323.481659 5
-0.15173041873992421 0.47949797246371306 1.7551020795539691 138 152 175 348.364838 393.154602 5
-1.2131142884467652 0.36012750659585396 2.3372969678071849 227 221 255 181.647385 345.876526 5
-1.2368679862763599 0.23238252529275111 2.4822227706311515 128 130 143 196.577301 328.458282 5
-0.79834873114486893 -1.9057612988041348 5.1090070872124969 255 187 208 323.481659 144.322586 5
-0.21392255356358492 -0.060410312696976054 6.8300574554585296 139 255 98 370.759735 283.668518 5
-0.2396943735428867 0.46936009222441699 0.76949171701721664 255 13 37 263.761963 520.05896 5
0.72351697909330936 -0.52280105451293091 2.9031678026648384 237 242 255 477.757507 213.995544 5
-0.14692284144335788 0.49740136450542999 0.83256078041285519 95 91 255 313.528351 517.570618 5
-0.1232947380930931 0.47324347573482195 0.97102474792219162 195 194 255 333.434937 477.757507 5
-1.4970663797874066 -1.0494474416032309 2.5438695369338986 211 219 228 156.764175 129.392654 5
0.71356383928443745 -0.54249773414947366 3.759694025916982 255 244 244 455.36261 233.902115 5
-0.83545340855435146 -1.068381910425477 5.1629118464231576 236 241 255 325.969971 206.530594 5
-0.85781762063408529 -0.95647922041721656 3.34012086264842 227 255 226 286.15683 179.159058 5
0.78536192355604517 0.47958901740760596 1.3429897491144018 151 158 255 609.638489 425.502777 5
1.5109171348446693 -0.75570839208411555 1.9837539022213737 225 228 234 676.82312 141.834259 5
-0.88212762134954747 -0.13516221576564186 2.6620595175636024 210 212 213 256.296997 266.250275 5
-0.62589711999078146 -0.37429385184363051 2.5933051693824085 236 243 255 293.621796 231.413788 5
-0.35516156672456956 0.38313483936133436 0.64901351596246837 161 255 116 174.182419 512.593994 5
-0.35151431417725854 0.34783391600650537 0.68363225516803405 193 255 194 186.624023 480.245819 5
0.38951022685140946 0.53691473952499746 1.1404129999783033 124 137 162 520.05896 467.80423 5
-1.3509089703565165 0.36925928958005527 2.3394723095400081 215 255 210 166.717468 350.85318 5
0.16724158791914312 0.34160818164185658 0.84347113844250243 193 200 156 460.339264 442.921021 5
0.040205367237865053 0.17624272954836084 3.9195895146587816 133 162 255 385.689667 303.575073 5
-1.2041823623434049 0.47116393797845868 1.4083375999449501 211 220 212 52.2547264 415.5495 5
0.98121696896793231 0.46639230892689904 2.4178828749259256 143 255 104 542.453857 365.783081 5
-0.39734209167622181 0.43448352852507716 2.3715570598969364 233 255 232 318.505005 355.829803 5
-1.5328952796259854 0.13243657742672452 2.4555578718640771 237 239 244 144.322586 306.063416 5
-1.1595339588257145 -1.9278845918394154 5.0331312071954208 182 205 225 296.110107 139.345947 5
0.35895798466437734 0.47808098295162571 1.0315530442450962 255 121 135 519.56134 471.785553 6
-0.88692078457455192 -1.5145168472438464 4.9320335506006545 232 255 204 310.542389 170.201126 6
-1.3373251547020431 -1.0143648772753948 2.5078157879159817 255 205 215 179.159073 134.369308 6
-1.4970663797874066 -1.0494474416032309 2.5438695369338986 228 255 209 158.257187 131.383316 6
27.663293900033139 -28.887551569420914 73.186589936616329 198 211 227 528.519287 137.355286 6
-1.4613254245441092 -0.28174799910041637 2.5054873051213957 245 255 241 158.257187 247.836716 6
-0.076918094535027404 0.48473749901190005 0.9228296582128741 96 121 126 352.346191 489.701477 6
0.62880576623035689 0.49846324952491966 0.98961187276147911 255 97 105 627.056763 480.7435 6
1.5807878050281432 -0.86341676606977813 2.1773244887525611 228 255 201 662.88855 134.369308 6
1.7189258017303191 -0.13542267170371203 4.745474518561319 255 211 214 519.56134 274.710571 6
1.6644132754970837 -0.63568383155001229 4.989524186690633 245 255 238 510.603363 241.864746 6
-1.0452434100700159 -1.1155882316084986 4.032973005335001 255 226 227 283.668549 179.159073 6
0.046791737470573302 0.15540536410077366 5.030175936749143 129 156 255 385.192017 301.584442 6
-0.34131292586451112 0.33845917529050129 0.65397266430779633 206 207 206 188.117035 483.729492 6
-1.528707310923815 -0.48454321113444654 3.5437608709308819 117 138 255 217.976868 241.864746 6
-1.0571417589972496 0.47559832782477002 3.224237792921322 139 147 147 256.794678 346.374207 6
-1.3400867083489203 0.37588895584938831 2.5752992625220941 230 255 231 182.145065 346.374207 6
-1.3684574413105293 0.36997377651139468 2.3585619815940575 255 218 207 155.271194 346.374207 6
1.3009950630523293 -0.70820438702687372 2.3628975400182428 204 218 232 600.182922 170.201126 6
-0.4387479727343564 0.43780964495773333 1.7292891593311785 255 78 106 283.07135 383.400421 7
-1.9200496316792637 0.46397867436455154 2.3756276752925647 255 79 75 71.6636353 365.484528 7
1.6644132754970837 -0.63568383155001229 4.989524186690633 238 241 245 512.394958 240.073166 7
1.5350073365059129 -0.84130266623094507 2.1209644276379547 230 255 208 662.888611 136.160904 7
-0.95678723141710531 0.44910117356917267 1.3544873233926156 255 86 97 107.495445 419.232239 7
0.72225195205176318 -0.54273085222346107 3.8721349052293501 255 244 245 455.064056 236.48999 7
0.12085896948154518 -0.64119791431948236 5.5080422927589883 28 255 13 390.566803 247.239532 7
0.85227899572031374 -0.62827277491031874 3.4913343316436993 233 237 242 476.563141 214.990891 7
-0.12059296897328609 0.39522669994097798 1.1693501364129819 255 188 190 347.568604 415.649078 7
-0.41325411808701573 0.41266669188873462 0.75806815871240607 255 124 155 175.575897 505.228607 7
-0.37687520447840361 0.36819052017483711 0.73802970298033754 208 206 255 193.491806 483.729523 7
0.45674902805232698 0.36086904181742019 1.2642997571257859 255 137 152 519.56134 394.149963 7
-0.34466756491995043 0.32546035956896568 1.8619804990985163 255 205 211 315.319977 358.318176 7
0.74051707853633753 0.46072322378459285 1.274709507479824 148 157 255 605.557678 426.398621 7
1.2015509899282122 0.19733483866004128 2.1267870619060729 182 255 118 598.391357 326.069519 7
-1.0452434100700159 -1.1155882316084986 4.032973005335001 255 226 227 283.07135 179.159088 7
-0.77613414771766553 -0.13212641625364355 2.3534075064407185 209 255 196 254.405899 265.155426 7
-0.60954004755750635 -0.3593271334189384 2.5255438694571941 231 255 223 290.237701 232.906799 7
0.96035495484963829 0.19270467847569001 3.096720250930316 142 156 255 505.228607 311.736786 7
-1.7554297553139486 0.32685599749136446 2.9358979600442447 195 197 255 157.659988 336.819061 7
-1.7363045265054726 0.18188497306923504 2.7285339008512466 255 236 237 143.327271 308.153625 7
-0.57234784381570503 0.30254792348598614 2.6332845640657556 216 216 219 300.987244 329.65271 7
-0.96983788453771913 0.3362071215350228 3.9895539303371113 176 197 255 293.820892 315.319977 7
-0.77029337549369536 0.096036548735886323 1.9882040538358856 103 120 255 229.323624 300.987244 7
0.61768791129305645 0.48018465325070037 0.83866059213940725 255 220 220 659.30542 505.228607 7
-0.1201983344432398 0.46311941867018203 0.94090539038415377 194 193 255 329.65271 476.563141 7
1.2929759237504175 -0.70353611145375183 2.3106216021151482 232 255 205 598.391357 168.409531 7
0.42395694430959341 -0.74329612449418836 4.795900786289029 143 161 180 412.065887 229.323624 7
-0.92472293976297237 -2.0378830139378556 5.5933931000508501 226 255 188 322.486359 146.910446 7
-0.78569491550785164 -1.2984489030662838 3.3943863344609948 207 226 255 293.820892 143.327271 7
-0.18304311366447412 -0.034417510391933345 6.2997430657658731 95 117 137 372.650879 286.654541 7
