ply
format ascii 1.0
comment Written with hapPLY (https://github.com/nmwsharp/happly)
element vertex 103
property double x
property double y
property double z
property uchar red
property uchar green
property uchar blue
property float ix
property float iy
property uchar octave
end_header
1.0279653622878457 -0.30055416737402219 1.0788749680506191 82 132 175 748 181 0
-0.31299642740695743 -0.032024294359196404 1.211515524351821 248 248 250 284.400024 277.200012 1
-0.54582283450854652 -1.3907300316942417 2.2518268426117736 180 214 255 289.200012 49.2000008 1
0.24537003958420578 0.5819105103736022 1.3286659108634495 145 170 255 457.200012 456.000031 1
0.78814278372809166 0.61963527712463529 1.5846300737904899 114 130 255 577.200012 439.200012 1
1.0543082360898601 -0.23469942919415154 1.4525522347900477 105 126 150 664.800049 225.600006 1
-1.8002193676890528 -0.48373925401408036 2.2741020172434903 129 255 131 82.0800018 207.360016 2
0.58714376042267835 0.046441256831515676 2.0236749171646382 247 249 251 496.800018 296.640015 2
-2.0264993345637654 -0.22034652232071728 2.5213349392027684 94 110 139 72 254.880005 2
-0.57154911408174636 -1.3496179677965996 2.2170706705891616 183 216 255 285.120026 56.1600037 2
1.02906610980313 -0.23142516970596139 1.4112314956673471 255 107 126 663.840027 226.080002 2
0.61624019611275238 -0.51330454311469464 1.9683984073221668 225 233 241 504.000031 187.200012 2
-0.2209303895132142 0.029423581187900893 1.2308431793447925 255 192 214 315.360016 299.52002 2
0.84449022706230847 0.43164951222564008 1.7661476833132168 148 255 160 570.240051 381.600006 2
0.53737495348928288 -0.4089569532223819 2.3368485319340948 246 255 240 470.880005 221.76001 2
-0.20759635058475689 -0.53484587900482583 1.2669205202308333 172 194 255 321.40802 126.144012 3
0.58675148444284564 0.66623067219164056 1.4664714386970576 147 163 255 537.408081 461.376038 3
0.95651714485488903 0.61682745678208395 1.3442087486605168 208 210 213 656.640076 463.104034 3
0.42048643097252203 0.6611600076339974 1.0508013316258245 255 124 137 539.136047 532.22406 3
-0.43994642135859863 -1.2380391909660979 2.0551332895219403 188 217 255 305.856018 57.0240059 3
-0.57154911408174636 -1.3496179677965996 2.2170706705891616 180 215 255 285.120026 51.840004 3
0.9086359282011891 -0.46963673730254052 1.575985579294767 237 255 217 606.528076 171.072021 3
0.87685953484976498 -0.064475093932689131 1.678916296147559 249 249 250 584.064026 273.024017 3
1.0259604375046671 -0.23531105273932296 1.3988287476143402 255 106 126 663.552063 224.640015 3
0.78516424615519309 0.61898605459492151 1.3636418972619815 255 170 175 603.072083 461.376038 3
0.46733860942830741 0.49268488135253596 2.2502548034047551 102 255 80 462.412872 369.100861 4
0.6072238388421658 -0.33138098946337347 2.2431813632320061 245 248 255 489.369659 232.243225 4
0.80093962197999713 0.62889639303416878 1.3982779164292607 255 170 175 603.417664 462.412872 4
0.61079526020254482 -0.16232687748910057 2.135518066472744 255 246 248 495.590485 257.126434 4
0.56092549646095935 0.02668263852412589 2.1088623329227376 255 248 249 487.296082 292.377655 4
0.77754746098681915 0.040150312121290499 1.8002934615407398 255 247 249 551.577698 294.451233 4
0.80171256211469655 0.34461029709068836 2.1105057837641761 168 255 134 530.841675 348.364838 4
-0.56982528567530188 -1.3566196574332059 2.2256884389260581 215 255 145 286.15683 51.8400078 4
-0.44445087949745066 -1.2976517616392396 2.1514481467414557 158 187 217 304.819244 55.9872093 4
0.88729399610176807 -0.45870473955531477 1.5316060800588449 255 216 228 607.56488 172.108826 4
0.83643085593426592 -0.50824503049138126 1.725633673564837 239 255 226 570.240051 174.182419 4
-0.38857570450107559 0.67159774693442498 1.0995390014152671 178 255 137 246.758438 524.62085 4
-0.40237795423400247 0.082463717771777301 1.5302062825370246 111 130 158 284.083252 311.040039 4
0.73711826436958838 0.65030388660591743 1.5654132018289353 120 127 137 564.019287 449.971252 4
0.42473264109329611 0.66326873616773352 1.0474500701124034 255 124 137 539.136047 532.915283 4
0.42574655942676598 0.52622148748019426 2.0885592991393622 106 255 98 458.265656 385.689667 4
0.52467844438831523 -0.40186661218427089 2.248325981039736 246 255 240 470.707275 221.875229 4
-0.22619231491755309 -0.08005636537875982 1.2463450597233621 255 208 228 315.187256 265.420837 4
0.5747617573381878 0.63840537872235392 2.1340185796255806 158 255 130 490.199097 398.131256 5
-0.70094186597837149 0.50450311186302144 1.9639140328438049 229 255 230 246.343719 388.177979 5
0.59945332357551195 -0.38034706461491963 2.0743783101837083 241 245 255 497.664062 216.483871 5
0.6405134609567591 -0.45308913708593734 2.2252580409446745 255 235 239 495.175751 209.018906 5
-1.9456967614641134 -0.53721017399786652 2.4818246896804883 151 255 161 82.1145706 204.042267 5
1.0335049821012534 -0.45659669499993827 1.4739316247585954 212 225 236 656.916565 166.717468 5
0.63987719170027746 -0.53458683891869463 2.0395953792001542 233 241 255 505.129028 186.624023 5
-1.1111233918850436 0.52108238204611368 1.4005419512175319 30 54 90 84.60289 430.479431 5
-0.36737918465824793 0.32457162687390118 0.63771487567479657 147 164 255 161.740829 482.734161 5
-0.39377139566155206 0.074813155998439296 1.4975409985453521 149 173 255 281.180206 308.551727 5
-0.41635850706766142 0.34262220636647922 1.4383989773994532 255 170 174 271.226929 378.224701 5
-0.3261699600909016 0.66054695499302229 2.6606741513373375 255 11 21 335.923248 380.713013 5
0.77691958373370995 0.6949010495139295 1.1930239417780424 255 27 18 639.498352 512.593994 5
0.55223112980111511 0.6429265743010697 1.4101370943371414 129 255 103 530.012207 462.827576 5
0.36088394503502119 0.68474045886310553 1.3537679992813363 162 255 128 490.199097 485.222473 5
0.38747867847679163 0.55901987691876198 2.0001096555751046 232 230 255 457.850952 393.154602 5
0.52467844438831523 -0.40186661218427089 2.248325981039736 246 255 240 470.292542 221.46051 5
-0.46668407445603544 -1.3159836372583198 2.1500596713617233 217 255 161 306.063416 54.7430496 5
-0.58576744451790574 -1.3770929436844461 2.2727326473330232 215 255 146 286.15683 52.2547264 5
18.772578859970018 -21.660320089992478 36.603661721261865 151 185 218 584.75531 64.6963272 5
-0.33527749596030532 0.33799801280277308 0.56422724671572855 255 104 129 155.271194 516.575317 6
-0.35001647986254358 0.35507167338870471 0.60860673753129024 98 124 154 164.229156 507.617371 6
0.57459232222436296 -0.4206562977632482 1.9663885501100369 235 239 244 492.687439 209.018921 6
-1.6857436789248053 -0.45612484956439459 2.1098394038380199 161 167 255 77.6355972 203.046951 6
0.83643085593426592 -0.50824503049138126 1.725633673564837 239 255 227 570.323059 173.187103 6
0.73644317392351977 -0.054215935604005505 1.3702981524919799 250 251 255 585.252991 271.724609 6
0.63987719170027746 -0.53458683891869463 2.0395953792001542 225 233 241 504.631378 188.117035 6
-0.33367424469277474 0.014805414244805082 1.8863113131580072 236 241 255 313.528381 295.612457 6
0.80242406250372422 0.63443081977319959 1.397186905218657 255 170 175 603.168884 462.827606 6
0.7284279785229637 0.63221118757953698 1.5144241564383583 255 93 103 567.337097 447.897675 6
0.98739836680947624 0.6189991365698535 1.1637849784219867 255 122 140 707.678345 492.687439 6
0.69131495680000898 0.59790110665224061 1.6677858755290975 255 113 127 543.449219 421.023834 6
0.8985815040664713 0.46786206965401689 1.655452906642692 255 121 134 591.224915 397.135956 6
0.19178587493106414 0.13464665137596887 3.9906007973393809 68 121 151 400.121918 301.584442 6
0.37434292998108676 0.56200816969635947 2.0070170410911787 232 232 229 456.855652 394.149963 6
0.4307468949870652 0.44646941783031124 2.8990289424621096 197 255 159 438.939728 352.346191 6
0.51467873582469936 0.5508161241869598 1.8374227576995956 144 159 255 489.701477 400.121918 6
16.477985178838377 -26.600848869888623 47.940541495469027 255 165 192 519.56134 74.6496124 6
1.0121162186484054 -0.44895101676817251 1.4318073876892239 225 237 255 653.930603 167.215134 6
-0.23456750712710317 -0.09113689483761056 1.2989552983237536 245 246 255 313.528381 262.766632 6
0.51867047051031756 -0.38708184177406169 2.2113994171907043 243 246 255 469.39679 222.157257 7
0.55475637380289755 -0.42555697061475806 2.382428013479462 240 242 245 480.146332 214.990891 7
0.17399423244345047 0.12471139768966821 4.2800923622372498 125 155 255 401.316345 304.570435 7
0.19178587493106414 0.13464665137596887 3.9906007973393809 118 149 255 401.316345 300.987244 7
0.82537786475175468 -0.50583449045237194 1.7076211356468889 240 255 227 566.1427 175.575897 7
0.90052839178291411 -0.076852116052273989 1.7382041964107264 249 249 250 584.058594 268.738617 7
0.66751095112647874 -0.15633942990658689 1.2019287244080799 255 246 247 591.224976 240.073166 7
-1.8675055160579497 -0.51539882273529325 2.3598161296387667 255 165 164 75.2468109 204.241348 7
-0.39833674284512499 0.72400966224186125 4.8686782361585585 255 126 150 347.568604 343.985443 7
-0.7062730301017055 0.70620986972583299 6.094974937247315 23 110 135 336.819061 329.65271 7
0.84454481587306529 0.44820746750008944 1.5421170659481076 255 121 134 591.224976 397.733154 7
0.79538291233073322 0.41016913712479131 1.6587430057275894 165 255 142 566.1427 383.400421 7
0.72472225612621677 0.4832440501371531 1.9405194706453779 163 255 132 530.310852 386.983612 7
0.45603115119015736 0.50546298100892495 1.6532609682543358 255 108 116 487.312714 401.316345 7
0.93134544151935106 0.59648543096100437 1.2998972141642433 255 202 205 655.722229 465.813599 7
-0.27611325432388245 0.62292910605168461 2.2259878205838559 235 237 238 336.819061 394.149963 7
-0.31228154557528542 0.6297959218284197 2.7534623263498972 87 96 97 336.819061 372.650879 7
0.85382170183369777 0.66700244722329172 1.498744501588968 172 173 255 601.974487 462.230438 7
1.0335049821012534 -0.45659669499993827 1.4739316247585954 211 225 237 652.139038 168.409531 7
0.878747456639696 -0.44585604045687521 1.5001639026606979 227 237 255 609.140869 171.992722 7
