ply
format ascii 1.0
comment Written with hapPLY (https://github.com/nmwsharp/happly)
element vertex 75
property double x
property double y
property double z
property uchar red
property uchar green
property uchar blue
property float ix
property float iy
property uchar octave
end_header
0.04123974010273268 0.67080876689262992 1.5546510581452688 39 255 16 394.560028 450.720032 2
0.41366789196316289 0.69885002935780305 1.2879230012517437 157 255 164 506.880005 493.920013 2
0.53870802958285546 -0.32392971071707466 0.88202966939853766 226 235 255 617.76001 146.880005 2
-0.3041663387654765 0.65231813201547428 2.9584652281397421 181 255 55 342.720001 374.400024 2
-0.16532056799270656 0.67139923038922023 3.0956325232504263 192 208 202 364.320007 370.080017 2
0.50386907724601215 0.52547986690435344 0.90563723959196274 224 224 255 597.600037 511.200012 2
0.49689744485289999 0.58998585589126451 1.7311821727342318 255 209 209 495.936035 416.448029 3
0.52419702850735561 -0.14598378718090577 1.0186392257833106 249 255 247 582.33606 233.280029 3
0.55009995838059322 0.098727866806764153 0.71939809980814395 244 248 255 677.376038 342.144043 3
-0.1428804550016558 0.59637696030201992 2.6996955629167854 216 255 186 362.880035 369.792023 3
0.49100711940726338 0.29338272934407517 0.85776466092115644 141 255 106 606.528076 421.63205 3
0.11092193759442548 0.16674864969949965 2.4364316340651868 245 249 252 400.896027 314.496033 3
0.58010382823786255 -0.04642638520193465 0.66698153060528753 255 248 249 719.539307 261.273651 4
0.52456369866331332 -0.036491082417389631 1.072614604030103 251 255 249 570.240051 275.788849 4
-0.44983029589846701 0.67681556943948751 3.0703595646909605 171 190 255 325.555237 371.174438 4
-0.1509480803048997 0.63413423821025239 2.8751044885942036 255 179 185 367.027252 375.321655 4
0.52189228700606383 -0.13286370636098255 0.80595823775962483 248 255 245 630.374512 228.096039 4
0.61033602802191367 -0.44900205443561414 0.72680616025153721 183 215 255 709.171326 47.6928062 4
-0.21396175315662092 0.72677955914632753 1.8347131953697042 48 131 137 340.070435 441.676849 4
0.56898314630516467 0.35367529333746633 0.65432351858405902 255 41 50 719.539307 497.664062 4
0.4778550737740348 0.10960524737303823 0.94833635412235306 245 249 252 576.460876 333.84964 4
0.52407466986370399 0.00083913274774372049 0.98620560086468068 251 255 248 590.976074 290.304047 4
0.55746953562503743 0.03614179206734125 0.63351782743252638 255 245 248 719.539307 308.966431 4
0.56031888583171452 0.16956965878095298 0.70536788568787134 200 255 208 690.508911 377.395264 4
0.031342682721652526 0.23063424023596601 1.8587699944263516 255 245 249 387.763245 335.923248 4
0.21626387383970114 0.16926259171822378 2.7807401091870627 252 255 245 414.720062 315.187256 4
19.70441023569407 -31.436753318329139 58.015214512113189 180 201 223 516.326477 82.9440155 4
0.080228467617076582 0.66356669530164902 1.2437809611325363 93 97 99 408.084534 487.710785 5
-0.25819468143875568 0.68334834199278838 2.4517514755468044 184 191 255 345.876526 395.642944 5
0.60991035563511331 -0.44247628362676683 0.71301487707328448 255 153 183 711.659607 47.2780876 5
0.6605316833435364 -0.19450938488689307 0.83046422785359919 237 243 255 689.264709 194.088989 5
-0.36185942753609712 0.74998109029126447 1.318261353167304 129 146 169 276.203552 510.105682 5
-0.1977305393646871 0.68484788786233275 1.7019887880685767 33 132 139 340.899902 440.432709 5
0.54956977551793007 0.34284691234472986 0.62758143154458956 255 53 64 719.124573 495.175751 5
0.563356183313791 -0.045492591402774396 0.645318220387602 255 248 249 719.124573 261.273651 5
0.5182790755057296 0.7225327189137154 1.2655835360151872 218 219 221 544.942139 507.61734 5
0.36364350233207632 0.71977638047531634 1.213187866464013 199 192 255 497.664062 512.593994 5
0.40341332436847011 0.6954898114535355 1.2725981480234676 174 168 255 505.129028 495.175751 5
-0.40281059672423503 0.9054177995193653 4.0676289108106758 195 199 255 345.876526 373.248047 5
0.45941268772874633 0.10699119105488375 0.90743487818470747 245 249 252 576.295044 334.430267 6
0.48303888557667296 0.035010523413501193 0.98255886909044854 245 248 251 576.295044 304.570435 6
-0.059106379471688397 0.75781355505501002 1.3486487341401636 255 71 76 367.276093 504.631378 6
0.0080796690566875551 0.18917478241937413 1.4756852545534223 249 252 255 385.192017 334.430267 6
0.44612735772142886 -0.27442802562018498 0.86640119225160728 255 230 234 579.281006 167.215134 6
0.55880107253718436 0.1779733912975574 0.75029243081335562 205 255 198 674.83252 382.206024 6
0.34776703604166337 0.27892693593203677 1.8438450290162187 255 241 241 459.841614 349.360199 6
0.075376449515885291 0.45046966367923424 1.9091643037634167 121 129 127 400.121918 373.248077 6
0.35533282095343521 0.69937640138985047 1.1731242292555439 176 255 184 498.659424 516.575317 6
0.60921076859100154 -0.28114816261849795 0.75398878386369983 255 226 231 695.734375 143.327255 6
-0.10772302002977696 0.75898955214050767 3.0236628849114524 160 255 197 370.262085 385.192017 6
28.135171885229568 -28.524673447344306 70.546300988535876 233 255 210 534.491211 134.369308 6
0.5558005795375407 -0.32602072967897411 0.82194720064731097 218 232 255 641.389526 136.160904 7
0.069003520051555967 0.34465887593519251 1.5927317383962833 126 127 255 397.733154 372.650879 7
0.17458365772734186 0.65095066049757588 3.9152406079768074 241 246 255 401.316345 354.734985 7
0.55596075578705428 -0.34652219622290281 1.0412850558433417 255 232 235 591.224976 161.243179 7
0.32353937925305098 0.60297568364400078 1.5211036947626022 172 190 255 469.39679 437.148163 7
0.64048080336441426 -0.29716090555947372 0.80098004261689226 255 226 231 695.137207 143.327271 7
-0.12813437669061001 0.59353130177855351 2.6296143918571868 196 183 255 365.484528 376.23407 7
0.11962966420768373 0.17626495566282108 2.5015171736689341 249 252 255 397.733154 318.903168 7
-0.46637695066402696 -0.20160563508130869 1.1659388454537911 140 255 108 222.157257 222.157257 7
0.56211038709938221 -0.11225554790378567 0.68382084679339439 255 244 245 695.137207 225.740448 7
0.61968194309235924 -0.18978505316889982 0.77365356342548619 255 233 237 687.970886 193.491806 7
-0.13295031510877653 0.68224324177004214 1.4550654434098274 255 31 71 351.151794 462.230438 7
-0.23997128546420798 0.60210708615333997 1.484872465395279 166 255 52 326.069519 437.148163 7
-0.27505159110821742 0.58666902281685984 1.8834877116635864 113 129 255 333.235901 404.899536 7
0.53280598035547122 -0.33678684235370304 1.0862182218765719 230 235 240 576.892212 168.409531 7
0.57859124233346804 0.30013775677747745 0.72836454236551873 255 165 171 691.554077 447.897705 7
0.38680276378825518 0.51424932541305091 1.7702032098352509 202 199 255 469.39679 397.733154 7
0.1677727672774636 0.18894473457277949 2.7890951898951215 249 252 255 401.316345 315.319977 7
0.56864664755386429 0.13006537307442367 0.71646212448679147 255 239 236 687.970886 358.318176 7
0.59481334901206684 -0.038171148540407929 0.8013801354257577 250 251 255 677.221313 272.321808 7
0.55461233246625663 0.055022697974012491 0.67889194697800725 255 245 248 691.554077 322.486359 7
0.53871303312713392 0.040569940217576095 0.70793448265348768 248 251 255 677.221313 308.153625 7
0.046994993653955097 0.52258100253588435 1.5690586947352845 117 255 118 394.149963 419.232239 7
-0.087885875764714738 0.50246523402139953 2.7999458299602935 239 244 255 365.484528 354.734985 7
