ply
format ascii 1.0
comment Written with hapPLY (https://github.com/nmwsharp/happly)
element vertex 117
property double x
property double y
property double z
property uchar red
property uchar green
property uchar blue
property float ix
property float iy
property uchar octave
end_header
0.14259380484757633 0.4336883124959921 2.701643439696249 192 255 148 406 351 0
1.2326684422114287 0.52881547759394243 1.311281501248077 184 181 255 745 442 0
0.90282478284496348 0.43156503201173169 1.9025697459516087 145 174 255 565.200012 373.200012 1
0.20605255232302544 0.62356185808256126 1.9645031063938543 255 141 147 423.600006 411.600006 1
1.243471876006967 0.3507683744768238 1.384198111146981 176 255 145 730.800049 386.400024 1
1.3217110071996827 -0.29845455136045029 1.4323097691613986 255 231 235 735.840027 207.360016 2
-0.94793563044678297 -0.59495725026485191 1.1412625818955124 224 225 224 64.8000031 86.4000015 2
-0.22717616232579285 -0.040620489127641268 0.71379601855468877 95 255 42 262.080017 264.960022 2
0.19709837721795975 0.59501004536083202 1.8657345531661216 255 141 147 423.360016 411.840027 2
0.1370090196264222 0.3921313048650748 2.4355559304240613 147 162 174 404.640015 351.360016 2
-0.93210620470945393 0.45358332078303354 1.0657851679218444 103 111 121 48.9600029 453.600006 2
-0.49403183370769987 -1.361768548696672 3.202975050297229 38 84 110 324 125.280006 2
-0.4869087739950233 -0.36712684125169548 0.85152946193235968 223 231 255 165.600006 123.840004 2
-0.90100000442577688 0.25947990098679707 1.5184410048467329 223 255 219 154.080002 352.800018 2
0.74171731128106266 0.56510592980641539 2.5069955911374056 152 255 122 498.240021 372.960022 2
0.69268214156634378 0.57154061530013645 2.6339119161637816 255 148 158 483.840027 371.52002 2
0.37207248314219155 0.6402765674358939 2.3311938938083054 121 134 154 444.960022 394.560028 2
-0.22084055091464228 -0.083087665451212378 0.79255633330729802 107 127 157 276.480011 244.800003 2
0.58570837762619554 -0.62219462004053483 3.2722570830120681 151 168 255 453.600006 213.12001 2
0.78464182914009561 -0.28189342972418968 2.624407109568315 241 243 246 496.800018 247.680008 2
-0.93850161737032245 -0.0098357596341448472 1.1254551798185775 255 159 155 63.3600006 285.120026 2
1.2506155185950134 0.49949470250855565 1.4530222290748691 13 28 255 717.120056 421.63205 3
-0.45244008681855608 -1.8267523848070621 3.3970769153643792 128 155 255 333.504028 79.4880066 3
0.15612007193905852 0.67687669050567023 2.604206543874243 128 157 255 409.536041 390.528046 3
-0.30789422328737448 -0.41117361614955972 2.6290466170832048 66 90 107 340.416046 224.640015 3
-0.27778449164306362 -0.3833209629936033 0.74045365886845582 98 255 42 238.46402 89.8560104 3
-0.92450811152635648 -0.58239730936907985 1.1061908804631191 255 223 224 63.9360046 86.4000092 3
-0.45396411052725494 -0.48020365144943378 0.76292281880990442 167 205 255 157.248016 44.9280052 3
0.61474166643652284 -0.63642133996560779 4.5328387107471348 157 255 91 438.912048 231.552017 3
0.76161600180696176 -0.28102621736745065 2.5336932427263701 243 246 255 497.664062 247.104019 3
-7.6918855948464611 1.7175877136823621 11.593521473458903 182 255 153 126.144012 343.87204 3
-0.92954289181317673 0.2321609277918254 1.0240944083131192 106 116 128 36.288002 374.976044 3
1.1943316604812837 0.33535268199017648 1.3104183495216164 177 255 151 730.944092 385.344025 3
0.14307862401545179 0.045342248455894074 5.2947479614612778 175 169 255 393.984039 288.576019 3
0.54426901210522827 0.60374204017601474 3.4382110698480233 255 34 100 447.552032 355.968048 3
-0.91782151416916857 -0.009389949807060094 1.0921338413920161 159 255 163 62.2080078 285.120026 3
19.124706204564994 -31.095563254361444 58.673967304064028 171 193 217 508.032043 84.6720047 3
1.2187317564125348 0.58861669664812477 1.4955388090631523 84 255 82 698.803284 441.676849 4
1.2211560983268623 0.48664912089901352 1.4045396951716187 18 34 255 717.465698 420.940857 4
0.1831956821078311 0.57562356956137961 1.8073360531183518 159 255 118 418.867249 410.572845 4
-0.05917634018570217 0.61147635885318619 1.1156186671191133 102 255 53 362.880066 499.737671 4
1.1463689076052879 -0.53725436949983629 2.3531959728268976 240 255 223 574.387268 203.21283 4
0.6460425648166821 0.64155561421859408 1.4952489096589616 167 167 255 545.356873 452.044861 4
-0.29869063143403629 -0.17970315965404726 0.96004950355782004 83 104 255 261.273651 215.654434 4
-0.29023657081478316 -0.39616793030800035 0.77887936776798528 42 75 98 240.537628 91.2384109 4
-0.23771384771687742 -0.27126093492999104 0.7861350948974648 255 49 78 263.347229 155.52002 4
-0.45792370732120302 -0.33489844869588625 0.78647611308171683 255 223 227 159.667221 122.342415 4
1.0678399460253267 -0.54366874206336102 2.0683378663982266 216 226 236 580.608093 186.624023 4
0.83350287365924247 -0.61712350082656164 2.9591711358943469 236 242 255 489.369659 209.433624 4
0.76154135745704288 -0.28807118965085793 2.5515095587832439 243 246 255 497.664062 244.68483 4
-0.14686629231568293 0.42980446266496841 0.76557337551430349 90 112 255 313.113647 503.884857 4
-0.37453680966078906 0.46288914415701654 0.74674022605752999 96 108 129 188.697632 526.694458 4
-0.91141843163407099 0.18388766808412255 1.00574941222186 255 118 123 39.398407 358.732849 4
-0.91873358161238716 0.26395591631603998 1.5557025072885438 221 223 255 153.446426 352.512054 4
1.2131516597349905 0.42939102308197985 1.4851837962078607 117 135 165 700.876892 402.278442 4
0.15927118381007244 0.56278419460172668 3.4071345846978609 201 255 159 406.425659 350.438446 4
0.74311356292944919 0.55936305387202023 2.5277615010879133 134 154 255 497.664062 373.248047 4
-0.23452461778693756 -0.39307106545634829 0.75047783227185549 255 42 75 263.761963 89.5795288 5
-0.51304141923058566 -1.3733771899351208 3.1508601475234137 255 61 98 323.481659 124.416016 5
-0.43692193297090132 -0.91042995110863512 3.2222399341955592 0 255 0 330.946594 176.670746 5
0.28508298237522167 0.51000029901947308 1.8205529316303224 125 146 255 445.409332 393.154602 5
0.8725428949279832 -0.26726479788858226 2.0780411333894078 255 238 241 539.965515 238.878754 5
0.77229320273310353 -0.2940436649084357 2.6136875564924225 243 246 255 497.664062 243.855392 5
0.2397592479331585 -0.2248844525553102 1.5192961035031542 98 133 160 440.432709 231.413788 5
0.94151331845948971 -0.48925430357378019 2.4454738431163294 241 255 227 530.012207 209.018906 5
-0.47609746211505932 -1.8603598214740371 3.5019085251875959 128 155 255 333.434937 79.6262512 5
-0.35024153530028324 0.30359229666727527 0.7715097950281864 255 48 77 211.507233 437.944397 5
-0.30341005316380709 0.45980719722356034 0.74454943757110037 255 13 35 231.413788 522.547302 5
-0.19534468258202597 0.40817011350327936 0.75926220261587352 255 34 64 283.668518 492.687439 5
-0.26252409951935851 -0.27459955894839772 0.81091998139462085 255 49 78 263.761963 154.275864 5
-0.27288572004148959 -0.055992263750871074 0.87186364673525985 73 93 255 261.273651 263.761963 5
-0.94379285476686192 0.04292117641687343 1.0723766887837431 255 207 208 47.2780876 303.575073 5
1.1156702242545116 0.4696837908181199 1.6014489034883352 255 133 148 651.939941 400.619568 5
-0.2738244729744741 -0.38247993334510255 0.73281350614908858 75 98 255 241.367081 92.0678558 5
0.95990827144761914 0.43566103172581822 2.1065548262686482 177 255 129 562.360413 368.271423 5
0.54505279751211111 0.60799477860329221 3.4708252184424433 101 132 255 445.409332 353.341492 5
0.13673333750145766 0.49152542010091371 2.077962383750255 180 255 130 410.572845 373.248047 5
16.887833362899279 -19.440305126466658 32.835739474108237 137 173 210 584.75531 64.6963272 5
1.0559635401423439 0.55678729363256729 1.7811982663452186 154 149 255 609.140869 403.10791 6
0.99854261902792529 -0.32061814164027891 2.4277357367222461 238 241 245 540.463196 238.878769 6
0.72193282037864104 -0.28647500415651567 2.3925472537348185 246 255 241 498.659424 241.864746 6
0.94842621790454307 -0.51866630608081132 2.5396421763523618 228 234 241 528.519287 209.018921 6
0.76632435713214098 -0.59975189169464049 2.8835675662983213 236 242 255 489.701477 209.018921 6
-0.93151946632705318 0.26745849458691018 1.5673601775199879 234 235 236 152.285217 355.332153 6
-0.3581656590359712 0.30871152446792527 0.80790357649267541 47 76 99 212.004898 438.939728 6
1.3019595809160618 -0.61496911281556765 1.584943298320904 235 255 225 698.720398 140.341278 6
1.1667113991930922 -0.60940866827841733 1.6154658384838427 255 198 213 659.902588 140.341278 6
1.3052943643548325 -0.64671849927357861 1.6332001353468302 230 233 237 692.748413 134.369308 6
-0.24838880191573853 -0.25960754449797552 0.75298618417516172 98 255 50 262.766632 155.271194 6
-0.26802074734010795 -0.25802487785763772 0.74221197508543435 59 70 89 244.850739 155.271194 6
-0.25992564042866295 0.64013724139226658 3.4914559227558204 168 182 255 361.304138 355.332153 6
1.101294176820915 -0.5370762591651923 2.1725477996488634 237 255 217 582.266968 188.117035 6
-0.15944422429489968 0.43633201142594674 0.78894254174328937 255 71 98 307.556396 501.645416 6
-0.095484370279283581 0.05233431237043773 2.2092593539203023 190 255 165 370.262085 301.584442 6
0.15904633671249657 0.57036502399392508 2.5293529788361671 155 183 255 409.079895 373.248077 6
0.43514421577361895 -0.39586635319510499 2.4887527334636754 255 57 111 447.897675 223.948837 6
0.17663118803273048 0.58249843803271717 1.8414369010304732 255 115 131 415.649078 408.482697 7
0.58288866547920204 -0.5933704512750646 3.0734851719882812 255 117 158 455.064056 214.990891 7
1.0116981909274876 -0.31368624599399653 2.4955673345735425 242 245 255 537.477234 236.48999 7
0.8090893909868575 -0.6442563601573954 3.151833459784287 255 234 237 487.312714 211.407715 7
1.1779109537159211 -0.50983086291761026 1.5773171505753867 230 236 255 677.221313 161.243179 7
1.1943850032710721 -0.65124052376475261 1.6904255498375118 255 198 213 659.30542 139.74408 7
-0.45020901085298171 -0.79106233328572606 2.7982601133932308 66 255 53 322.486359 182.742264 7
-0.38056111111218138 -0.06979066678792134 1.0042321247450747 28 42 59 232.906799 265.155426 7
-0.24311558133115518 0.29989447654826573 0.83880124832687741 22 42 68 272.321808 433.564972 7
-0.35982287190939832 0.39983803314074906 0.74876855454610869 15 28 54 200.658173 490.895874 7
-0.34424549450223196 0.29759401594104196 0.74793183549084974 255 48 76 211.407715 440.731354 7
0.39014230315351583 0.37616294869226485 4.1500097187643235 166 255 128 422.81543 318.903168 7
0.14015691473201053 0.054392625197628053 5.0917775127605065 175 255 167 390.566803 290.237701 7
-1.0891276187149623 0.40161318063703055 1.5993510432351865 142 255 119 118.244995 383.400421 7
-0.39638598373272682 -0.097056935881263184 0.72356002919524443 255 219 221 175.575897 240.073166 7
0.35026912356974482 0.54813462076190711 1.218131690559864 224 255 227 494.479065 462.230438 7
-0.15421024102008341 0.059905738139551856 2.8346681413142649 175 190 255 369.067719 300.987244 7
1.1216923888320398 0.51475368315477077 1.8084314338825251 152 148 165 616.307251 397.733154 7
0.60556499803104336 0.68136814168229165 3.9671072284183877 40 102 133 444.314514 354.734985 7
30.698369199895041 -30.703778318473262 60.488675228848045 157 186 217 576.892212 93.1627197 7
1.1717769030957936 -0.42683757647600984 1.4326873498721948 255 227 232 695.137207 179.159088 7
