ply
format ascii 1.0
comment Written with hapPLY (https://github.com/nmwsharp/happly)
element vertex 161
property double x
property double y
property double z
property uchar red
property uchar green
property uchar blue
property float ix
property float iy
property uchar octave
end_header
-0.34284202255396201 0.085805483044415987 1.4651420956875951 255 117 123 295 310 0
0.44076442535257887 -0.098853669252334769 0.99238920436970712 136 151 255 553 250 0
-0.4985881569208257 0.42703124565787237 0.86869447397476207 255 163 165 163 478 0
0.42211534892935498 0.20127960479464549 0.46153715853024219 58 73 101 736 454 0
0.42187524996185288 0.29939513043215432 0.46075669786700624 203 203 200 736 538 0
-0.54804207775191738 0.032015776314840524 0.72509680514000485 175 255 184 94 304 0
0.65735354193865569 -0.013787473496751211 1.0023202344486446 236 239 255 637 283 0
0.64347129376307999 -0.070921277083084822 0.92238006167834552 255 234 235 651 259 0
0.58746717080777744 0.0095040265801355547 0.97761946056171223 20 26 37 616 292 0
0.67537254959259851 0.33690030920038727 0.99105968297188562 193 255 193 646 418 0
0.67138583925438833 0.3042595710498493 0.98400816227356058 180 255 181 646 406 0
0.54131019529295299 0.16047045949536873 0.87750835745240319 255 69 85 619 358 0
0.27311728433247617 0.42527563558604387 0.72665228329580944 184 180 255 529 514 0
-0.30466356799152583 0.41275170315895571 0.61386594744354184 148 149 255 193 547 0
-0.0015846748951306444 0.21320687489734347 0.72454970078900216 126 255 112 382 400 0
0.48723082861337702 0.38435993397747092 0.79773593805064036 255 66 85 619 475 0
-0.57678440700809286 -0.39706453034131278 1.4731423313755414 198 206 217 232 184 0
-0.30109089103634079 -0.37262702302739725 1.430576195538148 45 73 100 304 187 0
-0.56546647394863825 -0.55834512336386499 1.4728763874398583 196 255 141 238 142 0
0.54475977716737023 -0.15322942532972278 1.8306914263129017 146 156 255 497 256 0
-0.016129391805176946 0.30555692454739047 0.45024842818157829 87 255 38 370 550 0
-0.3907445216132408 0.28701141366197336 1.1977831415487503 148 162 170 260 379 0
0.5187579482223883 0.35208061777809385 0.98931306006960296 198 255 197 586 424 0
0.35863583837006285 0.4067104829111437 1.4669271467742673 87 255 59 478 394 0
-0.20823929404807762 0.34232056022306723 0.61353732674804984 163 164 255 253.200012 504.000031 1
0.40938080484352657 0.42773581652832382 0.8091833171688616 71 102 255 577.200012 490.800018 1
-0.37178327229632968 0.27629754374573662 1.153981627412241 148 162 170 260.400024 379.200012 1
-0.0012079220791486878 0.21244900520461465 0.72455808243567088 118 115 255 381.600006 399.600006 1
0.19977990608233481 0.20147623190324301 2.3131102211546386 255 56 74 415.200012 321.600006 1
-0.24149889945759218 0.36812343151947102 0.59082827325437504 148 145 255 225.600006 528 1
-0.50906737658854073 0.41579416691123328 0.72049355270082982 255 9 15 115.200005 510.000031 1
0.47823974023663002 0.36922639618139558 1.0887630709756249 180 180 255 553.200012 418.800018 1
0.23267293094877789 0.37343496123091341 1.2125932306240303 214 214 255 457.200012 405.600006 1
0.58941070384210403 0.0060941574055455583 0.89071790451811927 234 239 255 637.200012 291.600006 1
-0.050118953558116658 0.19457996408056921 0.79089133783093335 177 175 255 361.200012 381.600006 1
0.46002716943107169 0.38308532164558629 1.0387857108625376 207 205 255 553.200012 428.400024 1
0.66056711477167385 0.32861540934001959 0.96642667159460172 152 151 255 645.600037 417.600006 1
0.17377151563634097 0.4569046692417239 1.4833851454814817 191 193 195 428.400024 405.600006 1
0.44648384443604044 -0.071922250013947531 0.94924382937275409 71 81 255 565.200012 259.200012 1
0.48697011043329741 0.37020502370463848 2.7187501576767081 255 61 72 451.200012 339.600006 1
-0.47873784124580865 -0.26476718481982692 1.3782952722062969 141 255 104 250.800003 213.600006 1
-0.56699876007220895 -0.55987149792618396 1.4728641146006152 163 195 255 237.600006 141.600006 1
0.50678611150542485 -0.15828021381396137 1.6663424326093963 111 255 87 502.800018 252.000015 1
-0.016036844728597788 0.2632214897684807 0.44770281251119975 39 57 255 369.600006 513.600037 1
-0.48304344410429167 0.17483013400912598 0.95088099042556984 161 164 255 189.600006 357.600006 1
0.42656770183821069 0.20311378239023045 0.46691831469584438 255 57 73 735.600037 454.800018 1
0.052535284616580663 0.40944041108172435 0.84846660406252783 71 255 47 406.800018 474.000031 1
-0.55817017956309023 0.029577451254935577 0.73668310909749901 175 186 255 93.6000061 303.840027 2
0.65765443941609103 0.055607728961153652 0.96316955980744745 115 255 125 646.559998 312.480011 2
0.53462601686591182 0.053192450616678211 0.87490693468739433 60 68 75 616.320007 312.480011 2
-0.17225270611490673 0.38114560787730234 0.61886137980356648 255 156 158 279.360016 522.720032 2
-0.36824281622833932 0.30785761832034875 1.319108709169277 255 150 160 279.360016 378.720001 2
-0.33453731752045529 0.25247677150703873 1.0647117588215267 149 162 170 260.640015 378.720001 2
0.44547000554087218 -0.14874414088826823 0.53929632516931403 255 206 212 699.840027 182.880005 2
0.27368630927531129 0.42812053903767167 0.73089050393807864 182 185 181 528.480042 514.080017 2
0.14080818931365044 0.41789944377740301 1.5305766593357741 71 81 108 420.480011 396.000031 2
-0.0016814424021680263 0.22483139486425496 0.78616031272669551 139 145 138 384.480011 396.000031 2
-0.33519215393262203 0.1604515528901336 1.4729791551843807 70 255 46 298.080017 329.76001 2
0.50739553828371553 0.37935052605165426 2.8076193451241247 55 67 82 452.160004 339.840027 2
-0.5760198005460172 -0.39860366711802547 1.4731424997033895 255 199 207 231.840012 184.320007 2
0.47042479206017773 -0.028799848210223036 0.98804554477018602 88 98 106 564.480042 277.920013 2
0.47533532840372217 -0.054813331936784747 1.035404132690136 148 255 126 558.720032 269.279999 2
0.47855564775340143 -0.13047973689527723 1.6124708226617908 154 164 173 496.800018 256.320007 2
0.45981423449154835 -0.10537979130733441 1.0426778978770668 116 129 143 552.960022 249.12001 2
-0.016318970011741485 0.26323799832808215 0.44788048214983578 47 49 66 368.640015 514.080017 2
-0.49593093333548532 0.42474964092280881 0.86403099704186181 161 255 163 162.720001 478.080017 2
-0.51362879594255373 0.41794324325781018 0.72673099255388007 255 4 8 115.200005 509.76001 2
0.43303064989071183 0.46366555252387431 0.88448130980133854 121 255 72 570.240051 486.720032 2
0.05398094098841047 0.404501931495441 0.83738369809087188 45 55 83 408.960022 475.200012 2
0.49987385830580616 0.022238085588006086 1.0825092921709545 99 109 117 564.480042 296.640015 2
0.70768007038403946 0.35627624010454467 1.0454175800917527 152 151 255 645.119995 417.600006 2
0.4769649882185597 0.17714014824129215 1.0166716218052325 142 163 148 564.480042 355.680023 2
0.55687071822912548 0.080827568701381081 1.9359010116487605 78 90 104 492.480011 305.279999 2
0.35084419589478821 0.39954009411378583 1.4392733131632127 81 255 52 478.080017 393.120026 2
0.55137515640953505 0.09999519091507092 0.91268387226996539 255 73 77 615.16803 330.048035 3
-0.56158351279947694 -0.51956753802529265 1.4009388221840959 170 197 255 229.82402 145.152008 3
0.71755607589932358 0.06037649985203522 1.0551955460895375 115 255 125 646.272034 312.768036 3
0.63053836284936793 0.031303851852568933 0.96469622397772936 255 196 198 635.904053 300.672028 3
0.54771719246820871 0.0098674210538921177 0.91136538735012063 255 27 40 615.16803 292.032013 3
0.45859045250599839 0.24592960050871479 2.8031475371338135 114 133 255 445.824036 321.40802 3
-0.15011648081497569 0.24317776632450144 0.66546717607615014 172 167 255 293.76004 428.544037 3
-0.6084406784649613 -0.41291253926082278 1.5369877080847456 255 200 207 231.552017 183.168015 3
-0.3252998538160205 -0.50603681100584796 1.2614205895451955 255 124 154 283.392029 134.784012 3
0.49212068728324304 -0.15346058722997838 1.0984005117870663 151 255 129 558.144043 235.008026 3
-0.018228617681448095 0.26538813622055918 0.45181254426577844 47 50 67 368.064026 513.216064 3
0.071691634185736236 0.43403021089694294 0.67880330020010815 58 60 79 428.544037 533.952026 3
0.26433338264615347 0.43364137059035085 0.7228459783238268 182 181 255 525.312073 518.400024 3
0.26648526992679905 0.41172385202932943 0.70149692609471193 183 184 179 528.768066 511.488037 3
0.50712733160570933 0.41110096800219176 1.7722204463324038 143 255 128 494.208038 378.432037 3
-0.51026993025840572 0.25658134901345481 0.83710083598514784 70 81 101 152.064011 406.080048 3
-0.30546877457225891 0.26613569007394555 0.96262770559872479 255 153 162 263.347229 393.98407 4
-0.35584377012822233 0.30196407463620845 1.0121198655012251 140 154 163 248.832031 402.278442 4
-0.19063581227397036 0.2667130456783236 0.6740812447083403 148 147 255 277.862427 437.529663 4
0.11895796945345891 0.31053191986693807 1.4245040326620999 168 172 167 412.646454 371.174438 4
0.26071294562805986 0.39449099953284422 0.67202792452108995 183 184 180 528.768066 512.17926 4
0.44687175426915327 -0.14287320388373781 0.54123689020943544 207 212 220 700.876892 182.476822 4
0.055540370979608317 0.40790256546367692 0.84168579226989304 45 55 80 408.499268 472.780853 4
0.44665957935410533 -0.065713693412490198 0.54054246101550862 223 226 232 700.876892 242.611237 4
-0.56158351279947694 -0.51956753802529265 1.4009388221840959 197 255 149 230.169632 145.152023 4
-0.47678798037307002 0.39209761206365235 0.67993204210660085 31 255 9 114.048019 510.105682 4
-0.5149085799291977 0.43700577364282051 0.89004935300468668 255 162 164 163.814423 476.92807 4
0.68709747711667524 0.054052186498268789 1.0030249785704348 119 255 141 646.963318 311.040039 4
0.071398401204207956 0.44340363537242217 0.69235991641611738 255 62 62 427.161652 534.988892 4
0.60171528789247897 0.079755277157970178 2.203918836507206 255 69 80 491.443268 304.819244 4
0.14086117541976448 0.40134695705640472 1.4853921721806984 81 95 121 420.526154 393.154602 5
-0.1980824504722089 0.27628156985139646 0.70284067188519395 155 255 165 278.691895 435.456055 5
-0.46029272368319152 0.39551032516353901 0.81482700467258595 161 164 161 164.229141 475.269196 5
0.45586372145435128 0.18404736406553759 0.53981624026420227 110 255 113 706.682983 415.5495 5
0.625522243511625 0.41717413675870518 0.93709149369045253 255 73 86 639.498352 460.339264 5
0.50789373538474702 0.43524873198364383 1.130382318867861 255 197 198 559.87207 432.967743 5
-0.63376331269024322 -0.58019844587244596 1.555969503741331 255 148 169 231.413788 144.322586 5
-0.064658451980316667 -0.90676844470918705 3.4672078379246778 255 37 69 375.736359 186.624023 5
-0.018900141483523092 0.26511902006849769 0.45149448902969885 47 49 65 368.271423 515.082336 5
-0.25931145310168824 0.38218784459070904 0.61992422621269516 255 155 157 223.948837 522.547302 5
0.45676581766342372 0.28391721872611231 1.0512770943113299 99 125 255 549.918823 385.689667 5
0.36495028196562057 0.41695005467350338 1.5312029543472496 58 74 255 477.757507 393.154602 5
0.36727126021918366 0.33626327126282207 1.4305690539016069 188 255 188 482.734161 375.736359 5
-0.11526069611702028 0.2659111605727269 2.5481718929225972 75 255 22 370.759735 328.458282 5
-0.36333538307881241 -0.14410809155376358 2.1055762317241609 28 70 94 316.016693 261.273651 5
0.25826689166316219 0.420337243335549 1.5640846400543345 255 73 85 447.897675 390.66629 5
-0.32592874367644109 0.24670818348682536 1.0490786453779721 255 148 161 263.761963 378.224701 5
-0.47429982463591658 0.32333634124672428 1.1879204346572612 255 145 157 235.892776 394.149963 6
0.37702718450860795 0.34951687299152012 1.5137749255647526 187 255 186 486.715485 376.23407 6
0.37525380185746909 0.25290037525872655 1.5003477403509842 102 124 255 477.757538 352.346191 6
-0.36314244320721867 0.42413534557591759 0.7254112949661714 255 149 153 191.103012 513.589355 6
-0.21957207460599942 0.35423646084133187 0.63078031678939617 154 255 166 250.822708 501.645416 6
-0.2358261169694813 0.29252407684045978 0.57683539347724344 255 55 67 223.948837 477.757538 6
-0.036948347683476657 -0.8099742416476492 3.0640858766030914 48 80 106 376.23407 188.117035 6
0.46427822717103906 -0.11653787610461877 1.0664608375611868 117 128 255 549.421143 247.836716 6
0.45847288986028051 -0.15474198738936373 0.55767143792783747 213 220 255 701.70636 182.145065 6
0.057835318705501682 0.39608712623763953 0.82448141545839393 60 90 255 409.079895 471.785553 6
0.466057532416919 0.19073524382122825 0.55954968472438849 255 175 174 707.678345 418.037842 6
0.51727339763641478 -0.147233102975417 0.93853680198716094 230 234 255 597.196899 229.920807 6
-0.45912537798347486 -0.26524971491047555 1.3396243712165152 147 255 110 250.822708 212.004898 6
0.73389441781000375 0.060425208870549828 1.0839522106122237 255 165 126 647.958679 310.542389 6
-0.43415977343924139 -0.64680887459817882 1.6590826563344065 159 192 255 277.696564 140.341278 6
-0.584867052041256 -0.51334464902983212 1.4383829408099449 171 198 255 229.920807 146.313248 6
-0.019663343782716891 0.26911623328625839 0.45292761093058692 255 56 59 367.276093 516.575317 6
0.50598314340532602 0.31783502253260731 1.1933066205072642 91 121 255 549.421143 388.177979 6
0.2569655872061164 0.33231123458164935 1.4886549842835866 130 255 90 450.883667 373.248077 6
-0.24663826757278084 0.29393761534591034 0.80821672443374826 154 162 164 268.738617 426.398621 7
0.46973225792342288 0.29543548135704506 1.0946310408501814 68 86 115 548.226807 390.566803 7
-0.4491042119383617 0.39177539946455564 0.79848464281714338 161 164 161 164.826355 476.563141 7
0.46328185655950599 -0.1474089146494931 0.56880268627532748 255 206 212 695.137207 186.325439 7
0.54942400340901909 -0.14685278813149216 1.8447911573069826 137 255 133 498.062256 257.989075 7
0.45212469670554045 -0.071917163659863406 0.54855208241428799 255 220 224 695.137207 240.073166 7
-0.070946651802077348 0.24694103847610038 0.45893647474182109 127 255 93 322.486359 490.895874 7
0.65337713117978902 0.44224731044030458 0.99658112163209922 140 149 255 637.806335 455.064056 7
0.68765623517567753 0.3485717792843569 1.00218457748662 196 196 195 648.555847 422.81543 7
0.4460050076810318 0.37563754209220629 1.0460031090686595 204 201 198 548.226807 426.398621 7
0.04929381726355278 0.38179419718626356 0.71130715547593326 35 49 80 408.482697 498.062256 7
-0.59925567610546915 -0.54426165359334333 1.4799287659382698 171 198 255 229.323624 146.910446 7
-0.46824682689361996 -0.67757729484389539 1.7640681565453391 255 129 158 275.904999 139.74408 7
0.26552191188661817 0.44228136128701301 1.445442343967702 213 255 213 458.647247 404.899536 7
0.44674484773538448 0.29136043055100019 1.0489510241454543 82 97 122 544.643616 401.316345 7
-0.07669263959856204 0.12329170754239759 2.5140694151583056 19 63 92 372.650879 308.153625 7
-0.33776747376154259 0.25700369061759587 1.0829876878540858 160 163 255 265.155426 379.817261 7
-0.40205074768176408 0.28907254494931189 1.0357043240711499 139 155 165 236.48999 394.149963 7
-0.39555435273508144 0.29333323955187185 1.4395210132457277 164 255 156 286.654541 365.484528 7
0.11308666882234919 0.27558660594211165 1.4338573061585078 187 192 184 408.482697 358.318176 7
0.5113489346391511 -0.14545210934329492 0.92705450859076699 223 255 211 594.808167 229.323624 7
