ply
format ascii 1.0
comment Written with hapPLY (https://github.com/nmwsharp/happly)
element vertex 152
property double x
property double y
property double z
property uchar red
property uchar green
property uchar blue
property float ix
property float iy
property uchar octave
end_header
-0.94387025398406754 -1.5159625559715293 5.2467585237732095 222 234 255 313 178 0
-1.6797920715445884 -0.31790622995774209 2.9061281420371112 255 241 243 163 247 0
-1.6574866266529273 -0.9295596172086531 2.8577666086027986 213 222 232 160 163 0
-1.6029470010186926 -0.017534472723558264 2.7969099815660718 247 255 245 166 286 0
-0.26477516508298193 0.41090789009889073 2.3579285596842223 233 235 235 340 355 0
0.086739882689751191 0.41421183526108396 2.7373605066511764 213 212 255 397 346 0
-1.1540653971545685 -1.7553378025931847 4.736899972889506 224 226 255 289 145 0
-0.7930095331030671 -1.7333810197437067 4.7920068869061039 189 209 227 320 148 0
-1.6702158780321779 -1.5374015501909648 2.8868168999498067 255 158 183 163.200012 81.6000061 1
-1.4064156990071397 -0.58756958471353793 2.7494045968535752 235 240 255 189.600006 205.200012 1
-1.5980071875957638 -0.59585530256527086 2.7794599103225393 241 255 235 162 205.200012 1
-1.3895966530300505 -0.66199325993839542 2.7160948935204945 234 239 255 189.600006 195.600006 1
-1.5880203161073845 -0.19123972611988171 3.8347164091285766 125 146 255 225.600006 271.200012 1
0.083799322021874456 -0.60234383547906079 5.0354521441912672 129 140 139 388.800018 243.600006 1
-1.4121821198245792 -1.856481308057162 2.7225058375225175 199 255 121 186 27.6000004 1
-1.3478177245048433 0.3493222368681913 2.649250980422472 202 255 184 190.800003 339.600006 1
-1.6104406465130481 -1.2916655928281322 2.8034216543955601 213 225 255 165.600006 111.600006 1
-0.33654979553606101 0.44776472413614554 0.89764956565962928 95 92 255 237.600006 480.000031 1
-0.91565368073083153 0.44510670443315781 1.3240369114648987 86 13 255 117.600006 415.200012 1
-0.91454999897876821 -1.1018774736812995 5.5047229303862952 235 241 255 321.600006 211.200012 1
-1.4153025930636618 -0.74313489910248198 3.1736585322638682 120 146 255 213.600006 199.200012 1
-1.0341221687094597 -1.5566322076311292 5.3844349323035452 221 233 255 309.600006 177.600006 1
-0.51214320833944038 -0.083902980303216967 4.0134497433166088 54 69 255 333.600006 279.600006 1
-0.98245615911831496 -2.0999039907731238 5.8180299550927117 255 189 209 319.200012 148.800003 1
1.2619191156415406 -0.50841682955339551 2.0389843300816741 231 234 239 624.960022 191.520004 2
-1.6595288018001284 -0.84417490311754895 2.8676850201330457 255 224 229 159.840012 174.240005 2
-1.6377780821658519 -0.92145807039408489 2.8323832757053773 221 232 255 161.279999 162.720001 2
-0.94813899231754695 -0.63401882473046278 2.9118291844751059 227 255 222 262.080017 205.920013 2
-1.5677517286441187 -0.554326850483982 3.0575909879215297 230 235 241 188.640015 217.440002 2
-0.46822490596552147 0.36902439680652305 0.92377010668256543 41 255 115 190.080002 440.640015 2
-0.4913519082866169 0.34611750746738634 1.0112771392576176 55 255 50 198.720001 421.920013 2
-0.23788880639561083 0.46850252370461148 1.2708069238085655 143 151 255 309.600006 429.120026 2
-1.4111046825975211 0.14117037959759915 3.6441351106893638 128 255 90 234.720016 300.960022 2
-1.3755498773892088 -1.1755677264483813 2.7024473853314954 185 202 222 188.640015 120.960007 2
-1.64354413222638 -1.455471785579604 2.8477417653764396 214 255 164 162.720001 90.7200012 2
0.58987174042186585 -0.46211215820177232 4.4876241333125018 223 255 166 434.880005 249.12001 2
1.7364383984386618 -0.31330112422027168 2.5286974480523448 101 106 123 648 237.600006 2
-1.5640470860001545 0.40998792734269784 3.0787169015351346 255 185 192 191.520004 339.840027 2
-1.3765099846666722 0.31148547037081259 2.418624179752928 212 193 255 165.600006 336.960022 2
-1.4357591185145031 -0.30326181486086529 2.7864457115303058 242 245 255 185.76001 246.240005 2
-1.5927705458529862 -0.30543744926439087 2.7775042461386636 243 245 255 161.279999 246.240005 2
-1.3946746192219415 -0.35998271276931548 2.7359481859639865 242 243 245 188.640015 237.600006 2
-1.6441384137608788 -0.45899923299831114 2.8502917589112795 244 255 240 162.720001 226.080002 2
-1.4636709144888735 -0.21675725648406718 2.7758941840083717 244 246 255 181.440002 256.320007 2
-0.73826170590376394 -0.39559721523400926 2.8712014378106856 227 227 255 285.120026 234.720016 2
-1.6307397054713637 -1.5103286579400026 2.8203858195502685 212 255 160 162.720001 82.0800018 2
-1.5622029465020053 -1.728846494413002 2.7917190487903838 164 203 255 169.920013 50.4000015 2
-1.5886386947422473 -1.0449815444273656 2.7666748828861825 219 229 255 161.279999 142.560013 2
0.34071758682088027 0.47932554982636072 0.89790968563754481 255 224 225 531.360046 495.360016 2
-0.72896723658575757 0.1496157824005388 2.9246918812221749 152 255 135 286.848022 307.584015 3
0.65877574679865059 0.31632580749114186 0.800945090937208 255 89 93 699.840088 437.184052 3
-1.5474485547774148 0.07418414984014568 2.8367823615984844 247 255 240 174.528015 297.216034 3
0.19141553714601511 0.47858303531895052 2.208789023631434 222 222 219 416.448029 371.52005 3
-1.3423047172838767 0.34740297115395979 2.6414744725990511 213 255 203 190.080017 338.688019 3
-1.4979914592760082 0.26466372141727573 3.49734813824029 255 96 113 219.456024 316.22403 3
-1.360294544809991 0.14148567500373832 3.4945106286246421 106 126 255 233.280029 300.672028 3
-1.2844875915699601 0.52523839455676957 1.9555400327897066 103 121 255 129.600006 392.256042 3
-0.90086720721385039 -0.71014692711205862 2.8307180006121513 216 255 213 262.656036 190.080017 3
-0.93025797069589267 -0.13942952458640639 2.7896904159934786 114 255 73 254.016022 269.568024 3
-0.7430682521504095 -0.39068672675495819 2.8796775730657154 227 227 255 285.120026 235.008026 3
-0.96126205109972007 -2.0377746742343374 5.655362655731845 209 227 255 317.952026 148.608017 3
-0.47226439491386119 0.47892908085294755 1.0052125866231192 255 44 70 203.904022 471.744049 3
-0.54981991249561446 0.38167902009222765 1.124926506381406 55 255 50 198.720016 421.63205 3
-1.2950045631904614 -1.9936902286289926 5.3820585158515231 226 255 223 290.304016 146.88002 3
-1.3845651792235198 -0.89085221231049316 2.7243262789949663 211 221 232 188.35202 162.432022 3
0.66460057730243705 0.28615895503035838 0.80768925390277269 164 164 158 700.876892 423.014465 4
0.57436137751969651 -0.46870661781275214 4.3739585428567311 255 180 216 435.456055 248.832031 4
0.59750744601679218 -0.53366924447854214 3.9239138053939691 255 233 238 439.603271 232.243225 4
-1.415409421289028 0.15003463491810459 3.6172463749967685 128 255 90 234.316833 300.672028 4
-1.5987509650540339 0.37587966413288687 2.838053801581764 172 177 187 172.108826 340.070435 4
-1.8177883155295933 0.39380441565875618 3.1778813535890675 209 189 255 165.888031 335.923248 4
-0.88854942486140187 -1.4287067694656319 4.8849474270708022 255 208 221 311.040039 176.256027 4
-1.0129718321392494 -0.15440343699615161 2.9782816050156256 255 78 94 255.052841 269.568024 4
-1.6435284691463314 -0.46830378325532307 3.8127921999746777 255 103 120 219.801636 236.390427 4
-1.3735139648976435 -0.67570002018200837 2.8363540435434267 255 229 233 199.065628 196.992035 4
-1.4392821482452605 -0.30465603108952588 2.7887247305757223 240 242 245 184.55043 246.758438 4
-1.4017237358632801 -1.5914460969059068 2.5169842012238051 203 255 130 170.035217 49.766407 4
-1.5940457773430889 -1.6884918393645219 2.7824517174271173 255 133 166 163.814423 53.9136086 4
-1.4234838173158177 -1.0487161364133639 2.7825100566836771 229 255 206 186.624023 145.152023 4
1.6116353566223109 -0.80831094278025795 2.3902366562893622 203 216 230 644.889709 157.593628 4
1.3061803115921622 -0.83518343571176668 2.4455392678378414 237 255 230 586.828857 159.667221 4
-0.23876945169007469 0.45178641615428689 1.2425710647355235 112 145 154 308.966431 431.308868 4
-1.3298937508938127 0.21274842310453548 2.7259807199105679 176 255 203 194.918427 319.334442 4
0.51402258245103649 0.47942972244317639 1.0225982539766973 177 255 143 578.534485 464.48645 4
0.50398526070284155 0.46252573049959433 1.1136422572484808 231 232 255 557.798462 449.971252 4
-0.72008813185638143 -0.51807120501093962 2.7552055041011596 255 229 230 283.668518 213.995544 5
-1.4105645886494709 0.13931571189933628 3.5842858889697755 110 130 255 233.902115 301.086761 5
-0.91571863049435365 -1.9291315644128602 5.3983148378601022 227 255 189 318.505005 149.299225 5
-1.5778614087222866 -1.7550809607409905 2.8249430139202913 163 202 255 169.20578 47.2780876 5
-0.32292753461615353 0.43198766938615657 0.85110994874073764 95 255 65 238.878754 477.757507 5
0.33630906199299226 0.46105128083880964 0.93807930446620635 223 221 255 517.570618 475.269196 5
-0.99052931289800217 -0.15215429466204747 2.9028727798396492 93 113 255 253.80867 268.738586 5
-0.72166576332473387 -0.38604585449008905 2.8215214721468858 226 255 225 286.15683 236.390427 5
0.49120396049044002 0.43950791647336207 1.0578014073605422 255 234 235 559.87207 447.897675 5
-0.51553436561879784 0.40237675110504234 1.8829533088643324 127 255 85 278.691895 368.271423 5
-0.34898187142866344 0.46245218668277099 1.1724495790460865 255 59 92 271.226929 435.456055 5
-0.18321002158891542 0.31309114513191172 1.1987755732126035 255 136 136 323.481659 388.177979 5
-0.47147526598336453 0.39447007777185361 2.5023888839113817 205 212 220 308.551727 350.85318 5
-0.66386597007231574 0.291056602624435 2.8412191962423425 255 182 184 291.133484 323.481659 5
-1.2362486443543892 0.45148084430394281 3.6845818318913697 65 73 67 256.296997 338.41156 5
-0.49294439248042532 0.47643372704281844 1.0292879775692088 255 52 80 199.065628 470.292542 5
15.991093984752858 -19.022029057410297 33.336568170374868 139 173 209 564.848694 72.161293 5
0.85170728568791654 -0.80243412538663184 3.8608722493345207 235 238 242 472.780853 209.018906 5
-1.2650810628397706 -1.9385620557266507 5.28275140724661 255 212 219 291.133484 146.810898 5
-0.92712472558623027 -1.442373092545455 4.9319241885296394 255 208 221 311.040039 176.670746 5
-1.3130811037981864 0.14932557593148871 3.3476892737544413 109 127 147 232.906799 304.570435 6
-0.91571863049435365 -1.9291315644128602 5.3983148378601022 189 209 227 316.514374 149.299225 6
-1.4486672802559779 -1.0291434355126461 2.7792860468988412 229 255 206 182.145065 146.313248 6
-1.6130010559013002 -1.0660454780642561 2.8217203586401585 210 219 229 164.229156 143.327255 6
-1.292557721320545 -0.16850835408293069 2.7095378590196426 244 245 246 200.060959 262.766632 6
-1.5657565731663365 -0.2963244659750105 2.769666663724184 241 243 245 164.229156 247.836716 6
-0.27544166973591544 -0.057283709357365153 6.4043949078286158 95 117 137 364.290131 286.65451 6
0.60218346423974933 0.43407795317138542 1.5385519641663494 84 117 127 528.519287 397.135956 6
-0.84505471295372026 -0.57023344831805711 3.1234668956892309 255 229 230 283.668549 214.990891 6
-1.1228946935051169 -1.0962532988306783 4.2160381787009635 227 227 255 277.696564 182.145065 6
-0.26256459745614413 0.46525662832081449 1.2983400991894039 255 108 142 307.556396 429.981781 6
1.3574236448028489 -0.82057831063490827 2.2660259719607687 213 221 231 612.126831 152.285217 6
1.2911576758143484 -0.81521493625071917 2.4183889030162384 229 232 237 588.238953 158.257187 6
1.5496779335828827 -0.14129782414898889 4.7790346813290121 246 247 248 504.631378 274.710571 6
-0.45381323055428191 0.39191843273721738 0.94757492688023492 106 136 145 200.060959 444.911713 6
-0.8856635673561275 -0.14678560915969494 2.6207679915421362 101 119 255 253.808685 265.752625 6
-0.71827463958644255 -0.37399858053394563 2.7931210082935345 255 227 228 283.668549 235.892776 6
0.57339910069165123 -0.49701770354589758 3.5582617904302118 242 255 231 438.939728 232.906799 6
0.52027058903938761 0.47947067509186159 1.1668211717847918 255 234 235 555.393127 447.897675 6
-0.33176471545291042 0.43437865017895161 1.1098878666999412 255 59 92 271.724609 435.953735 6
-1.4642095113981481 0.3613305591703585 2.8726613405794796 221 223 224 188.117035 337.41626 6
-1.2919404934295398 0.51910200589585265 1.967925684817025 255 94 105 131.383316 391.163971 6
-0.040541876841984958 0.12800661755408396 5.0351233998580351 113 131 160 376.23407 298.59845 6
0.75347826479466273 -0.68768229553956939 4.0452749839321962 255 236 239 459.841614 223.948837 6
-1.0690078634598592 -1.5871673157900976 5.3983860379825197 234 255 208 310.542389 176.173096 6
-0.70610284125016198 0.35792506247600658 0.86767106804879179 255 147 161 71.6636353 444.314514 7
0.65719331445970597 -0.63530397465833344 3.8889289351509921 255 235 239 447.897705 229.323624 7
-1.1820072107694242 -0.76969033419958233 4.2542274069360824 255 229 230 283.07135 214.990891 7
-1.1094834755293159 -1.1033716024728022 4.1893199145849511 255 227 228 279.488159 186.325439 7
-0.90248948721931255 -0.6964365067091175 2.8386365728927947 215 217 255 261.572266 189.90863 7
1.4329718755008436 -0.13333312900383043 4.4087421549044903 166 171 181 512.394958 283.07135 7
0.609366753605735 -0.56484347222146436 4.1632793509941672 236 240 243 440.731354 236.48999 7
0.058581273309646464 -0.52418044582208367 4.7090856118425561 255 27 33 383.400421 243.656357 7
1.3014508982926458 -0.83048851545585378 2.4645988601163706 255 230 233 587.641785 157.659988 7
-0.37117944327547736 0.48351230613007656 1.2661340743963159 77 109 120 272.321808 433.564972 7
-0.42453403743004792 0.29948963416138907 2.0408516475872993 175 194 255 297.404083 343.985443 7
-0.97812996238830552 0.30726119285637127 3.9298654641418302 255 151 152 283.07135 311.736786 7
-0.87881309158982424 0.075861649121658409 2.2582265140707127 109 127 147 232.906799 304.570435 7
-1.5407712587232876 0.36335986766300699 2.7289988887835959 255 177 178 171.992722 340.402252 7
-1.8698870190579915 0.17219461481718701 3.032035590377764 247 255 239 150.493622 304.570435 7
-0.36448604562741327 0.45908919527271758 0.93694074911588898 64 97 95 236.48999 476.563141 7
1.1813529613141458 -0.7230796667083208 2.5940853022443888 235 255 214 558.976318 179.159088 7
-1.4760383702177573 -1.042038224832597 2.806532613324745 229 255 205 182.742264 143.327271 7
-1.0443306089287607 -2.0613284448729177 5.89819774993276 255 190 209 315.319977 150.493622 7
-1.5910389704339032 -0.30070681681134903 2.8405801874359491 241 243 245 164.826355 247.239532 7
-0.18685994806445483 0.029739436302552102 4.5106621404001341 117 137 255 365.484528 286.654541 7
-0.96728545057860105 -1.5016722101261726 5.0841656376902167 208 221 233 308.153625 175.575897 7
