ply
format ascii 1.0
comment Written with hapPLY (https://github.com/nmwsharp/happly)
element vertex 72
property double x
property double y
property double z
property uchar red
property uchar green
property uchar blue
property float ix
property float iy
property uchar octave
end_header
0.056214954412889817 0.17414712898281692 1.4403831615631875 251 255 242 398.400024 333.600006 1
-0.50573617728775622 0.67683074160582235 2.268279596452647 210 255 214 298.800018 400.800018 1
-0.34361340032147547 0.6617659434704628 1.4740206669713771 255 211 209 295.200012 459.360016 2
0.4743485456098766 0.65063444282936078 1.104879040692194 129 149 171 548.640015 511.200012 2
0.066424529870782179 0.20190718455575707 1.7336848289980242 251 255 242 398.880005 334.080017 2
-0.54643941543812469 0.70312990236353023 1.366447796989493 255 226 225 231.840012 483.840027 2
-0.65592893008730702 0.67369713362273442 2.5008719221306883 165 164 255 281.664032 390.528046 3
-0.34037519129211269 0.67594346248612691 2.157895451508292 255 162 169 323.136017 406.080048 3
-0.58771924232994044 0.69398976129721657 2.0751211139148005 192 196 195 276.480042 414.720032 3
-0.68667436704469731 0.78061731542339996 2.523981319034176 104 105 109 276.480042 406.080048 3
0.0060939339782744018 0.28733009546165267 1.2143328918976772 255 237 236 387.072021 376.704041 3
0.17258101567463724 0.20330863784539743 1.5924083924046393 247 251 255 425.088043 336.960022 3
0.073542082030046751 0.2126970560247825 1.8551682770524192 247 251 255 397.440033 333.504028 3
0.71972806783944976 0.59664913204561942 0.95410491004215192 255 131 149 675.648071 528.768066 3
0.48443750993319656 0.64357929018240589 1.114431432122954 255 92 114 547.776062 509.76004 3
-0.59573179354262917 0.65195930504643362 1.1428891443427975 203 255 207 186.624023 504.57605 3
-0.73198329232773496 0.62436455917821743 1.5516299886496592 219 219 216 200.448013 445.824036 3
-0.25073255325929056 0.70284953102548142 1.8004643579322419 84 255 69 330.048035 437.184052 3
-0.37576123666035999 0.74186602178847827 2.169396147386232 255 87 89 319.680023 419.904053 3
-0.72104647541025857 0.73692274877513531 1.9381881492122366 131 255 90 238.46402 435.456055 3
1.2496433554757203 0.72545672681439222 1.8890907792362661 126 141 255 641.088074 437.184052 3
0.72624234259470533 0.6052732145594405 0.96216161537222167 149 160 255 673.920105 530.841675 4
0.0041706428189163258 0.27591428655576178 1.1862144287589889 236 244 255 385.689667 375.321655 4
-0.20568376326491089 0.7294192139538882 2.4701622105126191 111 118 109 352.512054 400.204865 4
-0.26082773181229646 0.34642147410257795 0.64398500385403867 180 185 191 228.096039 497.664062 4
0.1698727660114685 0.20055403457426846 1.6133696599506342 247 251 255 425.088074 335.923248 4
-0.7485000063677818 0.75315372428926208 1.4068203774694741 217 255 217 178.32962 497.664062 4
-0.26045687952171503 0.73054375403137861 1.8753186011005303 255 72 80 331.776062 437.529663 4
-0.67864853323406926 0.76523297465610929 2.5159973975944574 91 93 255 277.862427 406.425659 4
-0.43765860833188519 0.90929078067429869 3.1735202058976935 255 110 112 335.923248 398.131256 4
-0.73477659737424172 0.74539280624821314 1.9835541296599892 131 255 90 238.464035 435.456055 4
0.9418109099104135 0.68861158137034806 1.5873845787829719 136 148 255 613.785706 454.118469 4
-0.33768602894555455 0.72651107720338981 1.4252223224815816 225 221 255 293.621796 482.734161 5
-0.30502000193276935 0.82278530209249467 2.0259189497811221 67 73 77 328.458282 445.409332 5
-0.38437109915949685 0.75296994724605071 1.6939910388403696 219 218 214 296.110107 457.850952 5
0.059265631453642609 0.59358682765033843 1.7573463121273107 97 255 95 398.131256 423.014465 5
-0.86929701146330052 0.7872575366800747 2.2550770285219954 193 192 255 233.902115 423.014465 5
-0.5175202255215825 0.72416442256260138 2.4485859791502254 205 203 255 301.086761 400.619568 5
-0.27262519896546644 0.77371153890052047 2.0055646034984651 90 93 255 333.434937 437.944397 5
-0.63691865189783403 0.70815871184100221 2.2604507974088985 123 255 114 278.691895 405.596222 5
-0.65978227543692203 0.6509295806703721 2.252831454804042 181 170 163 276.203552 395.642944 5
0.17787688781487843 0.27869364960947773 1.2224020586050921 255 235 232 435.456055 378.224701 5
27.847664454985569 -28.075582836102402 71.181627268272166 212 226 255 537.477234 134.369308 6
-0.35979915216788294 0.77985105939647714 1.5836669494052025 222 222 220 292.626495 474.771545 6
0.15258233231570251 0.19272497890474272 1.5173411161335775 242 247 251 424.009796 337.41626 6
0.074770972422312898 0.20720833386403936 1.8216120714740676 247 251 255 397.135956 334.430267 6
1.2447997783329483 0.68152795494484442 1.792940715420686 108 255 74 650.944641 435.953735 6
-0.21835052601929394 0.79124074264241706 2.3224689923489628 82 255 79 346.374207 421.023834 6
-0.64085160650951423 0.71180289146364895 2.3221446864161326 91 93 255 277.696564 406.093903 6
-0.79044950929319802 0.66366964505680226 2.2573268947269369 156 130 255 253.808685 400.121918 6
-0.56096976121701925 0.66417615755458859 1.9400518985414266 212 255 211 274.710571 415.051849 6
-0.52205729009513879 0.7572964521087342 2.581121026940199 205 203 255 301.584442 400.121918 6
-0.95034257644135689 0.83329413262412921 2.6949733331637589 173 170 166 244.850739 409.079895 6
-0.30618640424705568 0.79904162092515119 2.059069885906645 255 75 82 331.444275 438.939728 6
-0.33503182620941985 0.73593006339081413 1.2893027702817461 211 255 224 286.65451 504.631378 6
-0.71266107578839177 0.66066079222670604 1.2445642961470265 152 171 255 161.243164 492.687439 6
1.1734127144395705 0.82341914590711518 1.9718775371370079 108 131 144 612.126831 447.897675 6
-0.0003153765633294725 0.27650180522194956 1.2298550783211208 236 244 255 385.192017 376.23407 6
0.11781875790588892 0.74577730210021742 3.1938952650217622 236 244 255 401.316345 376.23407 7
-0.5688861348476868 0.60748119054134597 1.0813765743953185 200 255 204 186.325439 505.228607 7
1.0338337876362851 0.57180837998105938 1.4480239750776089 74 97 109 652.139038 437.148163 7
-0.36355235112339335 0.74856645224463647 1.5133464803567742 223 255 227 290.237701 483.729523 7
-0.37997325810214599 0.75132376356301478 1.7001247934194543 227 224 255 297.404083 458.647247 7
0.17407346956339231 0.21438725908284662 1.7345318179603408 251 255 242 422.81543 336.819061 7
0.075558847680580188 0.21838741164437525 1.9245489243101996 247 251 255 401.316345 333.235901 7
-0.52205729009513879 0.7572964521087342 2.581121026940199 196 198 194 304.570435 401.316345 7
-0.27510488661123 0.78198843341158342 2.1537764199313276 45 49 255 329.65271 426.398621 7
-0.36309770345066994 0.75898578853288967 2.2623295707958615 140 255 169 318.903168 422.81543 7
-0.66550595073218988 0.56066258213278419 1.7564493536896091 255 145 141 243.656357 408.482697 7
16.597940730918623 -26.03195562691046 46.157715269658546 255 159 183 519.56134 78.8299942 7
1.0158098553594388 0.72483636658060413 1.680008879395424 114 137 149 612.72406 451.480896 7
1.1861885800512242 0.6449962905027784 1.5306035420443358 184 191 198 680.804504 451.480896 7
