ply
format ascii 1.0
comment Written with hapPLY (https://github.com/nmwsharp/happly)
element vertex 170
property double x
property double y
property double z
property uchar red
property uchar green
property uchar blue
property float ix
property float iy
property uchar octave
end_header
-1.3069295647179553 -1.6147630263853447 5.9136678458963203 218 225 234 300 184 0
-0.14995362848420912 0.43495450620077936 0.91823861295663445 219 255 223 322 469 0
-1.6070947913687252 -0.38632699855358721 3.1045051123538374 239 240 244 184 241 0
-1.5912412740093993 -0.91521615375736498 3.0851299825254688 226 234 255 185 175 0
-1.6448216206425794 -1.3095555470252447 3.1582584609381077 192 206 222 184 130 0
-1.830065249867495 -1.3806684085823067 3.1845188665450115 255 209 216 163 121 0
-1.8173817442483911 -2.2542537842807118 3.2259252134784715 150 192 255 169 19 0
-1.2112295190247471 -0.16773465961559392 3.3118099210921126 72 92 110 244 268 0
-1.7030746717953558 -1.4990605910192056 3.1915262558487965 198 217 255 181 109 0
-1.8839863521441833 -1.4943130877672044 3.2603656884546774 255 202 210 163 112 0
-0.15013657044426854 0.29901702041649891 0.8794785526853437 219 218 255 317 418 0
-1.3230404780552467 -1.8172282695010509 5.1270089747505248 255 211 218 283 151 0
0.50191005812178136 -0.25579407430739676 0.70812666079808295 225 255 188 654 150 1
-0.98066981554250399 -0.42528524534762457 3.3114128632015318 255 224 225 271.200012 238.800003 1
-0.78879642061246757 0.2372766487920096 0.90950549662087998 255 76 99 51.6000023 387.600006 1
-1.8445956767096852 -0.94496932085092222 3.1947089114199629 255 221 227 163.200012 175.200012 1
-1.6943523028353611 -1.0464563796566413 3.2301010536070383 230 255 209 182.400009 163.200012 1
-1.8314747914277905 -1.0810339604787114 3.1794917641257254 218 229 255 165.600006 157.200012 1
-0.14279871304558078 0.42489246118371682 0.88634550861635653 217 218 217 320.400024 472.800018 1
-0.12041685692727455 0.44201201458962858 1.4668925778243547 255 211 214 351.600006 404.400024 1
-1.7923256075250968 -2.2475808051043784 3.4018866584417653 153 196 255 181.200012 33.6000023 1
-1.7189478846705457 -2.022126235795108 3.0825139510999402 153 196 255 169.200012 33.6000023 1
0.35934600014177431 0.44693401460332338 0.69063708591155182 0 19 255 585.600037 537.600037 1
-0.70350050669537922 0.3469160150241653 1.3406981190733589 255 95 115 183.600006 387.600006 1
-0.14123355916825808 0.39508373808117447 3.1096585242833914 204 214 213 364.800018 338.400024 1
-1.6450391199419316 -0.070824539734752556 3.0772068693350363 244 246 255 181.200012 279.600006 1
-1.8593414559948034 -0.080185091002644426 3.2851843985833171 244 245 246 168 279.600006 1
-1.6848439887483311 -0.24424282139117492 3.1548550391594938 245 255 242 178.800003 259.200012 1
-1.6281142691770896 -0.75779102621160344 3.5284826922613997 255 226 231 207.600006 205.200012 1
-1.1234736722164227 -1.4576710065836029 5.282354680347602 215 224 234 300 183.600006 1
-0.40030125031738062 -0.050488673963910116 6.0927113221574238 90 110 131 356.400024 283.200012 1
-1.570718391789625 -0.6746735196281427 3.0292622457799618 255 229 233 183.600006 201.600006 1
-1.7835648920704084 -0.32962058266149646 3.1150088038813228 255 240 241 163.200012 248.400009 1
-1.5230249683831052 -2.0123691054495243 5.7617729385896279 224 255 221 282 152.400009 1
0.4640877542547881 0.070761715288441926 0.71910132714552399 126 137 255 633.600037 325.200012 1
0.36339754673969038 0.39333816551665757 3.8347785760306969 255 128 145 419.040009 326.880005 2
-1.6046416457889099 -1.1470826129843132 3.1043433518593684 227 255 202 182.880005 145.440002 2
-1.6440634274044528 -1.3053047352098239 3.1472537925270179 222 255 195 182.880005 129.600006 2
-1.7835648920704084 -0.32962058266149646 3.1150088038813228 242 245 255 165.600006 249.12001 2
-0.63619088343495678 0.45476897249219955 0.78267945808022299 161 255 187 70.5600052 512.640015 2
-0.649135572540954 0.41688511151941082 0.79881378443749851 107 121 119 72 489.600006 2
-1.8441775038777957 -0.85002672257852441 3.1806173662314721 236 255 227 162.720001 184.320007 2
-1.6529913453360172 -1.0805772079674036 3.1787126898134361 215 228 255 185.76001 156.960007 2
-0.045890730603600272 0.47787916680326481 2.7288155888654893 220 255 223 378.720001 355.680023 2
-1.5898043815755409 0.114721889550784 3.9195774349300789 103 121 140 228.960007 300.960022 2
-1.6848439887483311 -0.24424282139117492 3.1548550391594938 245 255 242 178.560013 259.200012 2
-1.1021378832302338 -0.713200379846888 3.1699993496169978 115 135 255 249.12001 198.720001 2
-1.2870166022502563 -2.2153173672703801 6.4832576045759538 195 210 227 308.160004 158.400009 2
-0.11876114238591362 -0.77051795837716341 5.6639778022498266 255 133 146 375.840027 234.720016 2
-1.8107169443412667 -1.7776584242996789 3.2167664172152017 170 205 255 169.920013 76.3199997 2
-1.7741131144588325 -2.078724865074272 3.175925219600567 154 196 255 169.920013 37.4400024 2
0.57053157213870165 -0.17779903777419714 0.69547551083678383 255 99 117 699.840027 188.640015 2
0.43751465955772195 -0.58976221827011932 3.9648512250651979 243 255 234 426.240021 233.280014 2
0.57570749551078459 -0.35023015999570051 0.70334556400303816 193 203 219 696.960022 96.4800034 2
-0.6235903105578573 0.30236401933419427 0.67793608025816066 93 99 255 33.1200027 459.360016 2
-0.53047361250865954 0.405984397913291 0.83616727547016922 159 146 255 141.12001 475.200012 2
0.18663139299764198 0.41118887596389486 2.4874567263491736 213 212 255 409.536041 350.784027 3
0.13943611498897224 0.44262884409870573 3.572727411403041 255 154 166 399.16803 335.232025 3
0.44718921745832108 -0.57319932797293494 3.9773488218000432 237 242 255 425.088043 231.552017 3
-0.69499869729861263 0.32582287454557274 1.3679464886092803 255 115 128 191.808014 376.704041 3
-1.5720628048545811 0.11800117297592388 3.8305918551054257 99 117 135 228.096024 297.216034 3
-1.1234745717243269 -0.72450739531991559 3.2236636563988279 94 113 134 248.832031 198.720016 3
-1.1579437030397761 -0.16219970562377486 3.1806516593659868 89 109 255 241.920029 266.11203 3
-0.98637423765791521 -0.42295562420065236 3.3107722745468218 224 225 255 269.568024 238.46402 3
-0.58234866355617299 -0.12326398365663382 7.3726069311689724 255 90 110 355.968048 281.664032 3
-1.6778110784387965 -1.0322877646984479 3.1952357491796453 218 230 255 181.440018 162.432022 3
-1.4244618144399013 -0.12416091221784356 1.5788633656531204 174 255 175 38.0160027 257.472015 3
-1.1848817247921457 -2.0512672927060769 6.0061523031812136 255 194 210 307.584015 157.248016 3
-1.7980347942585269 -1.7842476356616228 3.2095686693417256 170 205 255 169.344009 74.3040085 3
-1.7905571524612025 -2.0998378688297672 3.2000163783017843 154 196 255 169.344009 36.288002 3
-1.8411748853741199 -1.0977103340580507 3.2138866517206792 208 218 229 164.160019 157.248016 3
0.49400605635813277 -0.25210515846449238 0.69591085451842161 189 207 225 656.640076 148.608017 3
-0.46226641329572216 0.42776352164793785 1.6354638925393798 118 255 77 274.752014 390.528046 3
0.029874204027577234 0.45749384586886865 0.95606863071837989 82 98 255 393.984039 470.016052 3
0.023844737957850803 0.45716819369923856 0.70193113058796697 255 119 134 399.16803 537.408081 3
0.5748685688570434 0.00070570421815199097 0.69134713331367559 148 167 255 701.568054 286.848022 3
-1.9496993617389848 0.18170093223910255 3.2436722447256812 255 228 220 155.52002 306.892853 4
-0.029566897400142622 0.44144873500312809 2.5521372350405254 255 209 211 375.321655 354.585663 4
0.32196057616598961 -0.47225631222660924 3.5449008871468948 126 176 190 416.793671 236.390427 4
0.094788229195929219 -0.64881300236530903 4.6589515060445184 152 173 255 389.836853 232.243225 4
-0.8715988239942094 0.3588837479199013 1.2099179840497885 179 167 255 105.753616 404.352051 4
-1.449271572252453 0.11922477726090125 3.5824427794328031 101 119 137 228.096039 298.59845 4
0.56042955768413738 0.40213220313599191 0.71785835066733528 0 255 0 686.361694 505.958466 4
-1.6902141584502246 -1.0663306610009435 3.1921045764780085 229 255 205 182.476822 157.593628 4
-1.8365289814894195 -1.4742972504349958 3.1904623612094745 255 196 206 163.814423 109.900818 4
-1.8101843562656637 -2.0345934219933559 3.1718577995621002 255 120 155 163.814423 41.4720078 4
-1.1137763824230134 -1.9112255899392405 5.6548147190821911 194 210 227 308.966431 157.593628 4
-1.6158944156468626 -0.14062695091883312 1.7849103684538692 255 177 178 39.398407 257.126434 4
-1.2088839995798022 -1.1325566268938685 5.8915350247392322 227 233 239 304.819244 213.580826 4
-0.15265084779369253 0.44388198756058556 0.78499788497963596 200 255 209 306.892853 505.958466 4
-0.50418854910634914 -0.068511029102184193 6.5773826342021406 131 255 90 354.585663 284.083252 4
-0.11009837231462161 -0.7240444294327989 5.3602917169322222 255 134 146 375.321655 236.390427 4
-1.5900424024236699 -0.20700166571143086 3.2040163777766608 243 244 245 192.844833 263.347229 4
-1.6994468954424464 -1.0465447824570713 3.2215565206154255 229 255 207 182.476822 161.740829 4
0.30576521274723412 0.45068404675988211 0.93476748194654902 221 220 255 505.958466 472.780853 4
-1.0920557304001575 -0.54805713362856834 3.1555252116497048 162 255 104 250.90564 219.801636 4
0.59846856142104243 0.092633030437926811 0.69952463325223468 255 116 152 715.39209 340.070435 4
0.57208392147595921 -0.21380536022860946 0.69546495291030208 189 255 167 698.803284 170.035217 4
0.58736834707400654 -0.25808488370633109 0.71656893934788024 228 255 204 698.803284 151.372818 4
-0.017401918801865923 0.47688896849568863 1.0847555353867404 255 106 110 379.468842 458.265656 4
-0.1457009907639355 0.42213812551516999 0.89686719549050631 255 219 220 319.334442 470.707275 4
-1.2153453790298263 -0.17338920840146546 3.3098273428473437 109 255 70 242.611237 267.494446 4
-0.95914591909655478 -0.41742481126684716 3.2381222371332448 224 224 255 269.568024 240.537628 4
-1.8995840705559002 -0.50410705899599417 4.2599565688243111 133 152 255 213.580826 240.537628 4
0.44397307767089034 0.26114812102850027 0.97882163853165238 178 179 255 557.798462 389.836853 4
-0.40971520267819783 0.41414864717812583 0.74480959643507405 186 255 185 170.035217 501.811279 4
-1.4734684018392104 0.29660954131312961 2.6387137533285183 171 255 154 170.035217 331.776062 4
-0.11991275062064366 0.40119179280697581 1.3222666937753167 190 255 209 350.438446 404.352051 4
0.57662789736954978 -0.35165763703737579 0.71400957850877433 220 255 197 694.656128 95.3856125 4
-1.5230249683831052 -2.0123691054495243 5.7617729385896279 224 255 221 282.009644 153.446426 4
-0.098268363960585026 0.29244897988989804 2.5962523033793419 113 130 255 365.783081 328.458282 5
-1.2893926297497931 0.096516132004135613 3.2042868279140295 138 255 105 226.437149 298.59845 5
-1.7822332195987163 -0.32322798952407916 3.1424061057823116 244 255 240 166.717468 248.832031 5
-1.6902141584502246 -1.0663306610009435 3.1921045764780085 217 229 255 181.647385 159.252502 5
-1.5230249683831052 -2.0123691054495243 5.7617729385896279 255 211 218 283.668518 154.275864 5
-0.97490008646741622 -0.5557708192385773 3.2127049584461935 228 229 228 268.738586 221.46051 5
-0.014902596849824867 0.47687866822648506 1.0863603309039238 139 255 113 378.224701 457.850952 5
0.40227994902175057 0.39060586547131204 0.71906756062109856 54 255 50 602.173523 500.152405 5
0.57321723812811809 -0.25251174310132835 0.69896846485445518 210 225 255 701.70636 149.299225 5
-1.1817811430735712 -0.16984821322934332 3.2210646776223397 86 106 255 241.367081 263.761963 5
-1.4291800447071505 -0.43790658862200416 3.2692507609146748 132 149 255 213.995544 241.367081 5
-0.61948833907935086 0.44453369656673625 0.7241611857961161 255 163 156 59.7196884 522.547302 5
-1.7952483261553471 0.31482123063972478 3.1084984115559537 255 224 213 159.252502 330.946594 5
-1.8828656170205043 0.17524620650708927 3.1395860451716584 240 255 235 154.275864 303.575073 5
-0.03264139598458482 0.45193528972574765 2.5056811296427024 255 215 216 375.736359 353.341492 5
-0.99124465347320756 0.28188565673584187 1.1384840602564339 255 122 133 47.2780876 385.689667 5
0.29614327826166897 0.47348985263175053 1.666193823528197 136 148 166 452.874298 393.154602 5
-0.54987089887422602 0.4851848612609756 1.8876725851993883 89 122 130 276.203552 388.177979 5
-1.1137763824230134 -1.9112255899392405 5.6548147190821911 195 211 227 308.551727 159.252502 5
0.47602091815881642 0.073171689669174478 0.74555616308777806 126 137 255 633.028748 325.472321 6
-1.7387283089649515 -0.23717068460046703 3.4672761566489809 245 255 243 194.088989 262.766632 6
-0.1564623722701608 0.432466552667435 0.93546827863608439 218 255 220 322.486328 468.799591 6
-0.2686894057128959 0.010140746741980691 3.906552377752031 90 110 131 352.346191 286.65451 6
0.041937967830049772 0.45597310082936388 0.87004625718417561 37 58 71 400.121918 489.701477 6
0.58321479130332343 -0.21670175120782709 0.69835208076341337 179 190 255 701.70636 167.215134 6
0.28851006114086108 0.46502287944160053 1.4106502511668864 221 255 222 462.827606 412.065857 6
0.29424324691706349 0.44327153957258802 0.83727461526970792 220 220 219 516.575317 489.701477 6
0.28330420444730409 0.42231459769921731 0.87175823968940414 222 222 221 504.631378 471.785553 6
-1.139844796363616 -0.9582630108500807 3.978384897484859 255 224 225 271.724609 194.088989 6
0.45155641933286772 0.25662695037887884 1.1514264676250421 26 255 13 534.491211 373.248077 6
-1.0561848446264435 -0.1636897402746956 2.888344385167652 88 109 255 241.864746 265.752625 6
-0.93384420445588612 -0.40216479252534759 3.1662518168409517 224 225 225 268.738617 241.864746 6
0.38072684765252662 -0.57572170744595175 4.5536323511069758 114 145 166 412.065857 244.850739 6
-0.57648636104357642 0.41771182953673747 0.68230255703859743 255 183 181 59.7196922 516.575317 6
-1.5029522176533145 0.13199716474548664 3.647179264804759 255 101 115 223.948837 301.584442 6
-1.5849780407519578 0.31219088093006153 2.8092721234162852 171 255 154 170.201126 331.444275 6
-0.23596735002704117 0.31702228062489307 0.81250456040656505 221 255 223 274.710571 438.939728 6
0.58210080746372561 -0.78096534319794897 4.8272317250801011 229 234 240 424.009796 226.93483 6
0.57282015389574403 -0.17840890962946584 0.68813753066592476 84 98 255 701.70636 188.117035 6
-1.7110725891937961 -1.0752019880396881 3.2108087754208703 255 208 218 179.159073 161.243164 6
-1.3539504556197333 -2.1604983069253274 6.5545249209741456 255 194 210 307.556396 158.257187 6
-1.5039271882661644 -1.971412154456611 5.6898366692528963 255 211 218 283.668549 155.271194 6
-0.94688044516538739 -1.271536180876268 4.5396775016736193 223 233 255 301.584442 182.145065 6
-1.7747671564642094 -0.48101179918029147 4.0071769778345185 255 195 201 211.407715 243.656357 7
-1.833231062387898 -0.33105439075461857 3.2486019549864023 240 241 244 164.826355 247.239532 7
0.46677135608352804 0.31583071277529373 1.0230581864065369 92 255 89 562.559509 408.482697 7
0.29637718859826678 0.4717415218655665 1.4553422152395172 221 255 222 462.230438 412.065887 7
0.46152841741522432 0.24442059429145213 0.70503689644033507 129 255 78 634.223145 419.232239 7
-1.3440805750097278 -1.1073665091561644 4.5499036103856971 224 225 226 272.321808 193.491806 7
-1.123589995729299 -0.72075276425824186 3.2245284917969066 163 255 98 250.822708 200.658173 7
0.30009193785722288 0.44305516798715394 0.94129557283342824 221 220 255 501.645416 469.39679 7
0.51466639685900573 0.36751041661799677 0.71240640991371418 146 255 136 662.888611 487.312714 7
-1.0153200011412067 -0.3989440778238898 3.3362163489173757 224 224 224 268.738617 243.656357 7
-0.24014642544778431 0.18547838501805869 3.4478949341185308 75 101 255 361.901337 315.319977 7
-0.55772446854727176 0.29283885854667402 1.6417627964832482 184 192 255 257.989075 351.151794 7
0.47731056505467773 0.18325762351934322 0.74897816760464941 206 255 201 634.223145 383.400421 7
-1.8701436058583401 0.35082693446125507 2.3800482623845585 162 255 133 78.8299942 343.985443 7
0.57907003072691388 -0.22109633750480057 0.69641299250153188 255 169 181 695.137207 168.409531 7
-1.8162282343496372 -1.8157508570389318 3.2289438225686973 145 172 205 168.409531 71.6636353 7
-1.5039271882661644 -1.971412154456611 5.6898366692528963 255 212 219 283.07135 157.659988 7
