ply
format ascii 1.0
comment Written with hapPLY (https://github.com/nmwsharp/happly)
element vertex 124
property double x
property double y
property double z
property uchar red
property uchar green
property uchar blue
property float ix
property float iy
property uchar octave
end_header
-1.6277162481475083 -0.5942031917313173 3.7535901417776714 95 112 255 217 226 0
1.0685828207043442 -0.42532001390440255 3.3716684494756928 99 128 255 505 241 0
-2.1409766194376725 -1.9625216225898143 3.7659051038165332 195 255 139 166 88 0
-2.3768372519776624 -1.8805094319611715 3.8413504445424609 255 156 174 147 100 0
0.46976990756285553 0.28117357744906368 1.3175639891395401 255 77 92 523 370 0
-1.786045203491482 -0.28813399973947806 2.9070417997068505 233 235 238 148 250 0
0.33012552236820369 0.45391692518061255 0.82131387131533717 255 208 211 539 502 0
0.57278598098421307 0.2354154748472477 0.60785752464836329 42 42 255 745 436 0
0.36228990210974465 0.28507472698052816 0.60311567800368204 89 88 110 616 470 0
0.20269337662514197 0.28493738605440722 0.81443431802631927 214 212 255 481 421 0
-2.2477897099646515 -2.2584597079763276 3.6549767375297413 100 135 179 148 50 0
-2.100216486412668 -0.42017028871102002 3.6059158773414977 233 235 238 160 244 0
-2.3424916805688722 -0.071634085923544782 3.7091423851302956 241 255 238 142 280 0
-2.2367457435247946 -0.28378737488646072 3.7380853140018178 240 255 236 154 259 0
-2.2077063442979807 -1.0901683896192802 3.7467590451237966 215 225 255 157 175 0
-2.2011972965400837 -1.6073773673863994 3.7543033175345446 198 204 216 160 124 0
1.0775562638169318 0.08560785788239357 1.5733756231320413 59 71 255 649 310 0
-2.3488394757416771 -0.51993227370591866 3.7183851983159606 238 255 233 142.800003 235.200012 1
-1.3932439557280212 -0.56857558745654668 3.5872710699352135 255 217 218 235.200012 225.600006 1
-1.5238966675211518 -0.56701144251276581 3.5612026873121598 94 111 255 217.200012 225.600006 1
-1.912694944876316 -0.38513430922842562 3.2939128687777361 255 233 235 159.600006 243.600006 1
1.7165566858812689 0.18752707832346632 4.7494160095590576 255 95 108 523.200012 304.800018 1
-2.1357132057192971 -1.2112713272907518 3.6583035502045802 255 194 205 159.600006 159.600006 1
0.25958029707646407 0.28742113532944452 1.253967925293537 122 120 255 465.600006 375.600006 1
-2.8230456778488078 0.2276814414409514 4.2820905267589415 127 119 255 129.600006 309.600006 1
-2.3604118585444986 0.16512607578496372 3.6419920951775513 207 216 255 133.200012 303.600006 1
0.25525793322773493 0.42592989429614697 0.72326319601901667 255 207 210 519.600037 513.600037 1
0.47348808050371838 0.22145034961451066 0.69787531347978082 255 91 102 643.200012 409.200012 1
-0.62049398807605627 0.39093949105797593 1.3972133794320047 204 203 255 213.600006 394.800018 1
0.10894659285674979 -0.25291481067624433 1.1940610159389677 223 232 255 417.600006 205.200012 1
0.10753091033929252 -0.28421519897208847 1.1598181459641228 218 229 255 417.600006 195.600006 1
1.1727170951156163 0.16523836021654517 1.4173229082042385 68 81 96 700.800049 333.600006 1
-2.1106595358111573 -0.65595397145530032 3.6193001201304136 255 225 228 159.600006 219.600006 1
-2.323480648211504 -1.4266137767863718 3.6797513209497605 216 255 192 142.800003 139.200012 1
-2.2513466960994006 -1.796286022254828 3.641772698433019 199 255 154 146.400009 98.4000015 1
1.2789851132262009 -0.12270594479284119 1.4525603623543735 242 255 240 722.400024 255.600006 1
1.2125816520589956 -0.11713103375395381 1.3706062848318532 255 240 240 723.600037 253.200012 1
0.31679496071293128 0.42922599057293354 0.76742704889344504 207 211 209 540 502.800018 1
1.0681120199756844 0.08603907387004317 1.5511048204205771 54 67 83 648 309.600006 1
-2.0168735385677929 -0.2297802002042153 3.6095923682415938 238 239 241 168.480011 264.960022 2
-2.1292419503389022 0.094197669643843102 4.5308762799582416 67 85 105 204.480011 295.200012 2
-1.4563523144825465 -0.71217475457371471 4.0463506860182248 222 255 213 246.240005 221.76001 2
1.1026540645484868 -0.80764868589118022 3.5282538080779524 77 110 140 504.000031 198.720001 2
1.6274740845517583 -0.17874553294210388 4.7446409733722872 115 255 54 518.400024 273.600006 2
0.19613116761682936 0.4286827095288257 0.82979812160736355 208 211 210 476.640015 486.720032 2
-2.3064213067431254 0.020893445530864918 3.7860513751130989 255 237 239 151.200012 289.440002 2
0.49996724050744701 0.42652740096269881 1.2459358361193322 214 212 255 541.440002 419.040009 2
-2.0840708760596063 -1.3257430601798716 3.5716482509237153 193 203 217 156.960007 145.440002 2
-2.216419907120863 -1.6186037238432585 3.7629580442685211 216 255 200 158.400009 123.840004 2
-2.834646345764285 0.52838391765086912 6.0765002199305425 255 53 60 207.360016 322.559998 2
1.5371359076844628 0.38036330688448011 2.8146937699312367 255 33 80 591.840027 339.840027 2
-1.5847246422873869 -1.4952143144011631 5.7421710182163208 212 219 229 276.480011 190.080002 2
-2.2257169750222641 -0.92665254439395062 3.7812662050394565 255 223 226 159.840012 192.960007 2
-2.2712466663288402 -2.1334503871003769 3.6808193435136145 150 186 255 145.440002 66.2400055 2
-2.2442919755400856 -2.7293671515020512 4.1530097016744412 129 175 255 177.12001 34.5600014 2
-2.1106396836283388 -1.3413871859345228 3.7439003879233819 188 201 217 168.480011 151.200012 2
0.11529908035184633 -0.36003545049520885 1.1862870343534795 189 204 221 420.480011 171.360001 2
0.25476696810709809 0.41803542416092321 0.7165541378419884 255 206 210 519.840027 511.200012 2
-2.385879236209028 0.16054664583143494 3.6612176522314548 224 255 221 134.784012 302.400024 3
-2.1868249795461949 -1.096901125715406 3.706233912637821 213 224 255 157.248016 172.800018 3
-2.1667973204550397 -2.0681084729386923 3.5365006728063078 150 185 255 145.152008 63.9360046 3
-2.3031625660719124 -1.5103288753936996 3.6522872452695787 199 214 255 141.696014 129.600006 3
-1.8734400601055818 -1.507964881884641 3.0597048352639358 199 255 154 146.88002 98.4960098 3
0.10727877512703854 -0.34865600085747817 1.150568783612457 255 188 203 419.904053 171.072021 3
1.5643191311253983 -0.16955262288062981 4.4828542227791788 52 92 115 520.128052 273.024017 3
0.20010223642570457 -0.51833985917640735 1.1956406936476347 178 206 255 445.824036 122.688011 3
1.1630623475660411 0.36117597498505039 1.5038521403593539 122 255 88 682.560059 381.888031 3
0.016594856391365598 0.041442527172536173 0.55563708128872658 255 119 133 395.712036 316.22403 3
1.6560308851420458 0.16953613559903496 4.5374183721624535 255 95 108 523.584045 302.400024 3
-2.3131582565212487 -1.1333725423746779 3.6830007847379864 255 213 218 143.078415 172.108826 4
-2.2072610266035722 -0.35002244596704801 3.5497820450680777 235 239 255 145.152023 250.90564 4
-2.2029868810369613 -1.9980383402821684 3.8994270033114535 255 139 163 167.961624 91.2384109 4
-2.4418716857426714 -2.4650697035344056 3.8704706873329133 255 98 131 143.078415 43.5456047 4
-2.0384573415254996 -1.2906067548056037 3.6379599580549478 255 189 201 167.961624 151.372818 4
-2.3020568592832644 -1.8430407728470688 3.723369639655929 255 150 171 147.225616 97.4592133 4
1.0429377656790315 -0.12915331365707333 1.5183354897549297 80 255 35 646.963318 255.052841 4
0.1042481833167872 -0.25574270565988666 1.1954877754010782 232 255 216 418.867249 205.286423 4
0.76652048563978337 -0.80699551618414256 3.1085046691445442 216 227 255 481.075256 188.697632 4
0.010201328484975569 -0.50995583642434417 1.2216689335944821 255 146 174 387.763245 130.636826 4
0.11064925347717458 -0.64075679262823382 1.3209281973234792 147 169 200 416.793671 101.606415 4
0.24132750311668155 0.35290453854081627 0.72460847728864042 210 255 208 510.105682 476.92807 4
1.1397285654433074 0.34471409971764361 1.6921520429995298 85 98 111 644.889709 364.953644 4
1.2685783003423181 0.3191056629800747 1.4229214076987433 206 205 255 725.760132 377.395264 4
0.096216403407020312 0.01543949693363264 0.90959044158743052 255 195 202 423.014465 294.451233 4
1.0124977229108221 -0.057462408925656905 1.4680780004368805 43 58 75 644.889709 271.641632 4
0.11515443630309319 0.36126537017894311 0.91689571250320734 255 209 213 435.456055 437.944397 5
-2.2371484048457098 -1.1335272375142977 3.7681390870211202 205 213 224 156.764175 171.694107 5
1.0761600378525946 0.073423193209706028 1.5865734971935717 68 82 98 644.474976 306.063416 5
-1.4620952077912719 -0.59512170822675581 3.7171313061978934 218 218 255 233.902115 226.437149 5
0.50215055936427 0.15977359567822011 2.3618162185270175 103 122 255 465.315918 311.040039 5
1.0587482335579887 -0.75154814195529429 3.3665516703347644 124 148 172 500.152405 199.065628 5
0.1931901348844649 -0.52844542056747523 1.2105789058319978 162 181 206 440.432709 119.439377 5
0.021872433184534357 -0.54618238387541662 1.2781679108433419 146 173 206 388.177979 129.392654 5
1.2826501054983868 -0.12172462007889706 1.4635656332083442 255 239 240 719.124573 253.80867 5
1.1087400786984916 -0.13902083815873012 1.6406782331666496 128 139 255 649.451599 256.296997 5
1.3609022802858568 -0.14740243051557228 3.8694375008594122 92 115 255 517.570618 273.71524 5
-1.4992755694859792 -0.8525603025617895 4.0553168458018733 195 197 255 241.367081 209.018906 5
0.18573067662917964 0.36456241431723291 0.76840379227302935 255 209 212 475.269196 467.80423 5
-1.9470931964633982 -0.22574263789769147 4.2570590251745521 255 43 63 211.507233 266.250275 5
-2.2868122780212765 -0.28146780532664578 4.0592730567881503 239 241 255 169.20578 261.273651 5
-2.6025540606654785 0.17320075996388518 3.9652500433311264 229 255 224 134.369293 301.086761 5
0.11049224315120187 -0.2942753074783232 1.1664306837989764 219 229 255 421.023834 194.088989 6
0.20697101334939116 -0.52294876788763822 1.2323593594271187 206 255 152 450.883667 128.397339 6
-2.3935098526587448 -1.9226531557845579 3.8424276957217982 197 255 144 146.313248 95.551506 6
1.0881616853486036 -0.79543689265283168 3.4772894528229563 199 255 207 498.659424 200.060959 6
1.0677074714701726 0.065250008627486616 1.607374485430721 66 80 97 644.972656 307.556396 6
1.1468173388285072 -0.072077657086791674 1.4374556117554151 188 255 150 686.776428 265.752625 6
1.1001935318088545 -0.13433982360057889 1.6078815608742754 35 43 50 644.972656 259.78067 6
0.2057012084786044 0.41324077747093579 0.71039439236390944 207 211 209 492.687439 513.589355 6
-2.4646058873569365 -0.3871940481783207 3.9386914396421284 235 238 255 149.299225 250.822708 6
0.49479186930205743 0.14097208654113874 2.2804203557419731 118 255 90 462.230438 311.736786 7
1.1536457626225958 0.35049310737573558 1.514655584196932 82 94 115 680.804504 379.817261 7
1.1642955119697316 -0.20660342205121404 3.507167481458175 54 96 127 508.811798 257.989075 7
0.18187148166198908 0.42028995278774495 0.79740640638789029 208 211 210 472.97998 490.895874 7
0.23788724852351784 0.35679217041965983 0.72856322570789267 208 212 210 508.811798 476.563141 7
-2.9025038241215184 0.18189218057882547 4.351704615027205 233 236 241 128.994537 297.404083 7
-1.8839433636021372 -0.40840678883323067 3.8574300398387313 94 111 255 189.90863 243.656357 7
1.6270200080661139 0.13892686690246236 4.5480838625668563 133 255 101 526.727722 300.987244 7
-1.4884877862392734 0.19866167819279867 2.4849820920560344 152 255 143 146.910446 318.903168 7
1.0598363845964704 0.074859953494166936 1.5572401083564043 75 92 255 641.389526 308.153625 7
0.0070354363540479081 -0.5144718201505607 1.2332568004094209 205 255 146 386.983612 128.994537 7
1.0605219996118254 -0.76830302887294888 3.4227174264976972 199 255 207 498.062256 200.658173 7
-2.1950650128787843 -1.0987262866170933 3.6867498875590399 224 255 208 154.076813 171.992722 7
-1.549185818918656 -0.70738669819158484 3.5660133600270263 103 255 56 214.990891 211.407715 7
