ply
format ascii 1.0
comment Written with hapPLY (https://github.com/nmwsharp/happly)
element vertex 161
property double x
property double y
property double z
property uchar red
property uchar green
property uchar blue
property float ix
property float iy
property uchar octave
end_header
-1.4335992201290924 -0.7422363849846485 2.8145540804136915 238 255 230 190 187 0
-1.665343105478327 -0.31627109944253873 2.8960100958667581 255 241 243 163 247 0
-0.96823942054259593 -1.5189643751324291 5.3141396859132346 222 234 255 313 178 0
-0.93890728283352365 0.43981435007392472 1.3754095950031422 105 13 255 121 409 0
-1.658482020798961 -0.01894377164124364 2.8959636559130697 247 255 245 166 286 0
-0.58142787211883196 0.32679630891844125 0.62184343781462648 179 163 255 25 490 0
-1.4231623791015102 -1.8524930950541403 2.7587883621050366 199 255 124 186 31 0
2.3395756350648456 0.23077405557253308 3.8095003143431523 255 111 114 619.200012 313.200012 1
-0.28936606703278978 0.40975198423523068 2.4163637005083598 224 224 255 337.200012 355.200012 1
-1.699691088357258 -1.4022813989861507 2.9595431452338055 207 221 255 165.600006 105.600006 1
-0.53419081020127068 -0.082876628662969465 4.0540589586098879 60 76 255 333.600006 279.600006 1
-0.5695333046823734 0.32115012941970411 0.60922982467317555 174 158 255 25.2000008 489.600006 1
0.31910551067905613 0.47856982897055594 0.95741293726753951 255 224 224 511.200012 477.600006 1
-1.4936286592647789 -0.22195504739629374 2.8397954343694654 245 246 255 181.200012 258 1
-1.426102408159748 -0.82911058451799824 2.8075157562208668 228 235 255 189.600006 175.200012 1
-1.4951693509382751 -1.0252699211146747 2.9039091767392771 255 208 218 187.200012 153.600006 1
-1.6670520128041706 -1.0195480640697434 2.8991711890463749 255 209 219 163.200012 153.600006 1
-1.5766510776713392 -0.18884631339133151 3.8055080213017529 128 148 255 225.600006 267.600006 1
-1.6785294255196908 -1.0943503507171277 2.954590435983917 219 230 255 165.600006 145.200012 1
-1.4058393830039329 -1.1865166564746352 2.773161088405661 203 222 255 189.600006 123.600006 1
-0.36179988048614131 0.44729952530570449 1.1810318659297021 255 41 74 267.600006 433.200012 1
-0.85881587018121053 -1.0388678084397709 5.2103737913021213 255 231 236 319.200012 211.200012 1
0.064523312489022322 0.41433798557844659 2.7608493621143992 210 209 255 393.600006 343.200012 1
-1.3666020646767696 0.34478787029347485 2.689766780823982 223 224 255 189.600006 337.200012 1
-1.4221644937302682 -0.73575394118154669 3.1917103987376203 131 155 255 213.600006 200.400009 1
-0.27638422535215712 -0.05782658154695286 6.1882214784538991 96 118 137 364.800018 283.200012 1
-0.81486859872977924 -1.7327824631627335 4.842622557808264 228 255 190 318 151.200012 1
1.009041566656609 -0.47856909878898202 3.4864011735556284 241 245 255 493.200012 235.200012 1
-0.3607197448344801 0.44345575828021655 0.94959677681973265 98 95 255 237.600006 468.000031 1
-1.1911351899026181 -1.7650688489084272 4.8464911793122631 226 255 220 290.400024 146.400009 1
-1.6115099064667411 -1.6905631478727026 2.825082747997214 137 169 205 164.160004 57.6000023 2
-1.011507696497385 -0.1520963684771498 2.9747606541199931 115 255 74 254.880005 269.279999 2
-1.3994909283085017 -0.89400102433583006 2.7706798347626798 232 255 212 190.080002 164.160004 2
-2.0111695327461088 -0.24696049862502473 4.8219010712801316 105 125 146 224.640015 267.839996 2
-1.6751321922073101 -0.62253907744461245 2.924566529967259 237 241 255 165.600006 205.920013 2
-1.4249931222300698 -0.67010941250770095 2.7912510773937571 255 230 234 187.200012 195.840012 2
-1.748909855968193 -0.73784539209310773 3.0744456776888125 236 239 255 165.600006 195.840012 2
-0.26139449674339299 0.46498425479291899 1.3248111335494808 154 255 112 306.720001 423.360016 2
-0.45149105585339888 0.44526537384957893 0.96785302167041087 255 52 83 203.040009 463.680023 2
-0.97284688441429212 -0.5539242110683773 2.9802771654075797 126 147 255 257.76001 216.000015 2
0.21401004272832358 0.47329744647874195 2.0986833893673875 255 226 226 423.360016 372.960022 2
0.64512407571599595 0.28387248276326826 0.8661450922639935 255 115 116 671.040039 411.840027 2
-1.4348656235581632 -1.2817553743509484 2.815767637941176 255 188 203 187.200012 113.760002 2
-0.52266068067436389 0.34541236903609168 1.0763137813653429 76 255 37 198.720001 411.840027 2
-1.495706553454534 -0.3126551934122283 2.8957179435297951 255 240 242 187.200012 246.240005 2
-1.607518928190574 -0.3097568438180836 2.8202528626215235 242 245 255 165.600006 246.240005 2
0.6581276404224049 0.48336475081443298 1.7852647808904476 255 182 187 527.040039 394.560028 2
-0.66651595951414144 0.28776750986378957 2.8351540996111098 215 216 218 292.320007 326.880005 2
-1.4171939288815119 0.13814623958988359 3.6556700829250435 130 255 93 234.720016 300.960022 2
-1.4111057362595441 0.30718503975912415 2.4820188908412071 221 215 255 165.600006 336.960022 2
-0.92259530338382456 -1.4426888421378625 4.977820825504419 209 221 234 312.480011 177.12001 2
-0.73605414016980353 -0.39219418713594922 2.8593880335713089 227 227 255 285.120026 236.160004 2
-1.4936286592647789 -0.22195504739629374 2.8397954343694654 244 246 255 181.440002 257.76001 2
-1.0801610323265418 -2.1945390490548533 6.1755513023718587 228 255 190 318.240021 151.200012 2
-1.6045671126006624 -1.7517198583151901 2.8818257911120275 166 203 255 169.920013 53.2800026 2
-1.4657003790727923 -1.0644462265279497 2.8701384976868241 205 216 228 188.640015 145.440002 2
1.1196196844116417 -0.69703529864523184 2.4963724417477025 224 235 255 557.280029 181.440002 2
0.69344217232351857 0.31605076121758524 0.81391732389509963 56 58 64 712.800049 439.200012 2
-1.1982595825785101 -1.9013762673458219 5.0989852041559596 226 255 219 290.880005 145.440002 2
-0.7837344721011239 0.25795447488505779 1.162909338135858 100 255 61 126.144012 369.792023 3
-0.96537472008938607 -0.14234708338950619 2.86809641875643 255 81 99 255.744019 267.840027 3
0.13282685455098342 0.46071017023074268 1.5642281103333167 112 255 185 418.176025 404.352051 3
-0.75771906017497015 0.14749479231873758 2.9958484555525633 169 169 175 288.576019 307.584015 3
-1.6044606275682258 -0.37438985671584868 2.8378250041732436 243 245 255 165.888016 236.736023 3
0.9202370190658351 0.3862452533539672 2.4246153010909279 107 110 110 528.768066 349.05603 3
-1.3352659031983714 0.33862130516275163 2.6396345102447625 211 255 217 190.080017 336.960022 3
0.078748364908405755 0.32323160130013967 2.3623950426974876 255 70 90 395.712036 336.960022 3
-1.6585316098264395 -0.47300910101531801 3.8529301186227398 255 103 118 219.456024 243.648026 3
-0.996174670733871 -2.0510370797916764 5.7624607036159494 211 228 255 317.952026 152.064011 3
1.1558941313350248 -0.69996237699814989 2.5417857594173676 235 255 213 558.144043 181.440018 3
0.29355758916314145 -0.63603275489236311 4.3817467152060754 131 154 177 412.992035 231.552017 3
1.5960599838797211 -0.82558017856852139 2.4763133544950793 231 255 207 634.176086 157.248016 3
-0.49725117993685353 0.47512368577406444 1.0603852869694297 255 52 83 203.904022 463.104034 3
-0.50558927632450512 0.36744780122121845 1.0005322496786044 54 255 147 190.080017 430.272034 3
-1.3523504415191789 0.20894844854626643 2.7738086986424082 255 188 133 195.264023 317.952026 3
-1.3108396615007503 -1.987807526524124 5.4238979747273595 226 255 220 290.304016 146.88002 3
0.49225102676130461 0.47719191636881825 1.0736421970715533 255 127 139 555.724854 458.265656 4
-1.9521528975398845 0.40895372522533779 3.40320847489253 255 230 215 163.814423 337.996857 4
-1.7764250045336425 0.35061051709710972 3.0604470634251726 255 221 221 159.667221 329.702454 4
-0.48068509268490045 0.32033902226969652 0.98766932731293267 255 31 42 199.065628 412.646454 4
0.55084206591293827 -0.46541215526453583 4.4233315748755828 255 150 187 431.308868 248.832031 4
-0.5013870379940788 0.39564387198881595 2.5799833483702748 205 255 175 306.892853 346.29126 4
-0.64183857742785833 0.27990026280877589 2.7637497630828927 232 233 232 296.524841 327.628845 4
-0.74441142384099201 -0.38983543949837751 2.8736133687076837 225 227 227 284.083252 236.390427 4
-1.4030434325928485 -0.68260300306080635 2.9034398769361993 255 229 233 199.065628 196.992035 4
-1.5961894112475812 -0.81276825436995959 2.7875397634464592 255 225 229 163.814423 176.256027 4
-1.4973257980024131 -0.31614054289501464 2.8941349841055355 245 255 240 186.624023 246.758438 4
-0.91974465364261659 -1.9052987864750552 5.3860630885456589 212 229 255 317.260834 153.446426 4
-1.6806660069041643 -1.4715454902272824 2.9282949476973674 255 165 189 163.814423 93.3120117 4
1.1586357226083339 -0.72305438716194448 2.5810707847270424 224 235 255 557.798462 180.403229 4
0.29732047868569222 -0.72796377286959812 4.9595462161393451 142 161 181 404.352051 232.243225 4
-1.5734852212471195 0.15798882205285975 3.3400689467579525 233 239 255 205.286423 304.819244 4
0.2072375313456325 0.44916359320877197 0.71624269200349033 255 207 210 491.443268 530.841675 4
0.40667023123119239 0.5581254719450095 2.2275808699847213 112 255 112 458.265656 385.689667 4
-0.7275369483932872 -0.5145386940190475 2.7930120700005276 229 255 228 286.15683 216.483871 5
-1.4017490810424951 0.13933016958511465 3.580941952627275 113 132 255 233.902115 301.086761 5
-1.303929422354865 -1.9546576318728626 5.3906762880844754 255 210 218 291.133484 146.810898 5
-0.91974465364261659 -1.9052987864750552 5.3860630885456589 228 255 190 318.505005 151.787537 5
-1.639160640902495 -1.4539107580367379 2.8676858702347845 165 189 215 164.229141 92.0678558 5
-1.6094879418939696 -1.7706522271568925 2.8998056179697143 166 203 255 169.20578 52.2547264 5
-0.92037793432565929 -1.0462190874561912 5.2956920460984138 236 241 255 313.528351 209.018906 5
-1.077117581718301 -1.570648628674258 5.4298364022394345 255 208 221 303.575073 174.182419 5
-0.28908691707005119 -0.048004014713694199 6.3222960992542072 255 96 118 363.294769 283.668518 5
-1.4800609518491674 -1.0399103906489104 2.8504047068067515 229 255 206 186.624023 146.810898 5
-1.6449827076922361 -1.0772915414822932 2.8925255681082844 210 219 230 164.229141 144.322586 5
-0.26187330607568615 0.44781865141316124 1.2953828682484319 255 115 147 303.575073 423.014465 5
1.345372132810519 -0.82679785230330738 2.3401894073382339 223 228 235 604.661865 154.275864 5
0.4973553312249438 0.47557811924086502 1.2131164217731523 255 233 234 539.965515 437.944397 5
-0.74960114908409148 -0.39050197219794586 2.8910443079244308 255 227 228 283.668518 236.390427 5
-0.51709425515491536 0.47202360034201746 1.082947199365373 37 62 59 204.042267 460.339264 5
-0.3607178470348249 0.441790567930061 0.9474803463014605 97 97 255 233.902115 465.315918 5
-0.36756396190757434 0.45377599794745327 1.213972677128794 55 90 93 268.738586 427.991089 5
-0.40826017199016951 0.47022753248835836 1.1679108800337499 255 107 132 251.320358 442.921021 5
0.15112388851259206 0.49070147405539044 2.3148136700905471 224 222 255 413.061188 368.271423 5
-1.5714304787640883 0.36324143970575457 2.7995048945292078 255 204 209 171.694107 338.41156 5
-2.100686560549013 0.3317820038478293 3.6085191810247821 255 216 217 159.252502 328.458282 5
15.955723906963705 -18.881602284410441 33.388088217151086 139 173 209 564.848694 72.161293 5
-0.48756643992879867 0.3049066168355653 2.2048116168674068 227 228 255 301.584442 334.430267 6
-1.3164336108531773 0.1298139226712996 3.3669669032823748 100 117 136 232.906799 301.584442 6
-1.6086470351320976 -0.30405482807853679 2.8860740373786213 255 241 242 167.215134 247.836716 6
-0.91974465364261659 -1.9052987864750552 5.3860630885456589 191 211 228 316.514374 152.285217 6
-1.1933148194978256 -1.686549939108275 5.8264297406862937 209 221 233 304.570435 176.173096 6
0.054702662058776497 -0.48723660227519217 4.4938137198182861 55 255 13 382.206024 247.836716 6
1.5279351957269696 -0.13562103024721106 4.8401113612398667 247 248 255 501.645416 274.710571 6
-0.74066554644433458 -0.52126350430284962 2.8098876813225417 255 229 231 283.668549 217.976868 6
-0.99858340118542666 -0.9759609484215428 3.8121307772892346 228 228 255 277.696564 188.117035 6
0.49381862499016671 0.48289664105715735 1.2847460591586386 140 150 169 528.519287 429.981781 6
0.58988469360272067 -0.55858275342802266 4.2025071056065686 244 255 232 438.939728 238.878769 6
0.48698129813650182 0.48334282869318235 1.0684682394348664 152 170 255 561.365112 456.855652 6
-0.30686194624856267 0.47824069186086465 1.4132755211913004 150 161 255 301.584442 424.009796 6
-0.51912932468983142 0.38659651875933954 1.8714230532522165 107 255 73 274.710571 367.276093 6
-0.38600916096194915 0.45279947196078291 0.98723548584637388 64 94 94 232.906799 465.813599 6
-0.35405318946540687 0.42911673865898148 1.1591844148305466 52 87 90 268.738617 429.981781 6
-0.99672406287764748 -0.15178527973780814 2.9225547822059919 101 119 255 253.808685 265.752625 6
-0.73783542853232298 -0.37907200550926667 2.8454061732117912 255 227 228 283.668549 238.878769 6
-1.2942953196630085 0.50521013441882956 1.9882306457654351 77 255 50 134.369308 391.163971 6
0.15448194336815169 0.4550644735113214 2.2509235557830083 218 217 215 412.065857 370.262085 6
-0.39068233440159039 0.47800792459137453 2.7210246502485269 224 224 255 325.472321 355.332153 6
-1.2535948798618071 0.4478068373031342 3.7141747911976299 38 28 255 253.808685 337.41626 6
-1.4271372295052744 0.34836760905058656 2.8189340883004967 211 200 182 188.117035 334.430267 6
-1.5529960363542679 0.35746421624540076 2.7589426783128652 187 255 170 170.201126 340.402252 6
-0.067100941227487221 0.13638781227814017 5.0940732755649218 116 134 164 376.23407 298.59845 6
1.4106891154361219 -0.12853572811386557 4.4671901287533542 247 248 255 501.645416 275.904999 7
0.63339687679956402 0.47020313023382787 1.7484990503748348 255 80 114 519.56134 394.149963 7
1.2855576109151146 -0.83352525431825164 2.5364690994140271 230 233 237 580.475403 157.659988 7
-0.8845124398759876 -0.58172638345883942 3.2256505841382097 255 229 230 283.07135 218.574081 7
-0.8499463074480702 -0.42968746445976946 2.6126585293278684 126 147 255 257.989075 218.574081 7
-1.1276576596764816 -1.1001786553754598 4.2294535554295747 255 227 228 279.488159 186.325439 7
-0.7084532028942081 0.34533571426998966 0.89184112752931566 255 128 144 75.2468109 437.148163 7
-0.88239775222841654 -0.14587905997119971 2.6148058456376582 110 255 66 250.822708 265.155426 7
-0.39452822570125057 0.47915050823902727 1.3188134860918872 52 87 90 268.738617 429.981781 7
-0.47048450778040607 0.38257090018267664 0.98582355220333029 109 135 106 200.658173 437.148163 7
-0.46187579617989427 0.029228724577625063 5.8201767795283113 118 138 255 361.901337 290.237701 7
-0.88620098718002627 0.29106089536414093 3.6102221621343453 154 255 125 286.654541 311.736786 7
-1.2812402771856783 0.1462131027055566 3.2736353659546058 102 120 138 232.906799 308.153625 7
-0.44345061605309977 0.49860316353342571 1.1208641694990451 64 94 94 232.906799 465.813599 7
0.75710020372688702 -0.7289371361074638 4.4495013471747935 255 235 239 447.897705 229.323624 7
-1.5120074800109209 -1.0540603311703929 2.8848106280286423 229 255 206 182.742264 146.910446 7
-1.0905745178602864 -2.0898852967628638 6.0532783981670146 255 197 214 315.319977 157.659988 7
-1.303929422354865 -1.9546576318728626 5.3906762880844754 226 255 223 290.237701 150.493622 7
-1.5950306641093652 -0.30224179540609386 2.8326201953706973 241 243 245 168.409531 247.239532 7
