ply
format ascii 1.0
comment Written with hapPLY (https://github.com/nmwsharp/happly)
element vertex 106
property double x
property double y
property double z
property uchar red
property uchar green
property uchar blue
property float ix
property float iy
property uchar octave
end_header
1.0748577499837242 0.56038191295103534 1.6004027647982957 255 66 77 643 421 0
-0.4299914744074318 -1.8067728240801495 3.1948889152717275 132 144 162 332 70 0
-0.86825297497191434 0.60651370737988841 0.91471212478944963 255 126 133 19 541 0
1.196107013850404 0.24786776222797419 1.2670943746596661 121 163 187 744 363.600006 1
0.15435518471454523 0.41396891102315914 2.3398422817530822 255 147 168 411.600006 355.200012 1
-0.090986462338244589 0.64473479392410937 1.7240543626055578 255 157 169 363.600006 433.200012 1
0.82756848644681003 0.50493855303099733 2.0130424674414931 158 167 255 541.200012 385.200012 1
-0.94653552336735514 0.56493272477611178 1.0081916337951933 50 255 54 22.8000011 504.000031 1
-0.4711611824835642 -1.3129097931840379 2.8768063118815279 79 102 255 321.600006 114.000008 1
-0.37289181762257639 -0.091076131583038178 0.59863669569200217 123 147 255 145.440002 228.960007 2
0.9497245592528426 0.32301514342525128 1.8725758800425849 140 255 114 578.880005 352.800018 2
1.195402213766644 -0.46569699463754821 1.3874683893964654 255 209 220 715.680054 156.960007 2
1.1866133824169376 -0.43106333383254303 1.9179494473516847 228 234 240 620.640015 203.040009 2
1.0344535459900244 0.36439791506257835 1.8560099423072618 113 134 255 597.600037 364.320007 2
0.21998146730506973 0.63836066534810465 1.8047945084603327 70 255 56 430.560028 424.800018 2
0.391068938968403 0.65918358651630427 2.1942155516494415 149 171 255 453.600006 406.080017 2
0.9447374468536861 -0.40069391338275762 1.653679989807805 231 239 255 601.920044 192.960007 2
1.2041438799602195 -0.076022889237062685 1.3225267810164905 255 125 150 735.840027 264.960022 2
1.211690260859041 -0.047529948528520716 1.5088331231282774 186 255 135 694.080017 275.040009 2
0.78650604889648035 -0.24600903414337105 2.4327562587616471 247 255 242 506.880005 249.12001 2
-0.39783939943627811 -0.035981451832975964 0.58498492762157106 247 255 245 122.688011 264.384033 3
1.1894525853985987 -0.62041524135034054 1.3870366500147187 206 224 255 713.664062 117.504013 3
1.3524462477240227 -0.30062389752023544 1.6145688955908817 200 255 121 706.752075 216.000015 3
0.33108958718374049 0.14357184571864848 4.07040583137616 155 173 193 412.992035 300.672028 3
0.66302244521158671 0.6588607950802845 1.3378254030749472 255 84 89 575.424072 480.384033 3
0.97362196674806267 0.33009229788232902 1.9253839083085067 130 148 255 577.152039 354.240021 3
0.21137739544177392 0.61093136545704407 1.7097723349591885 71 255 58 430.272034 425.088043 3
1.1269632928976945 -0.39007783850520694 1.9194221275287644 255 215 224 611.712036 210.816025 3
0.76013120741027307 0.58142567452881877 2.356977083311139 168 255 138 506.304047 381.888031 3
-0.47668036169276595 -1.346470437573682 3.0136796259114682 79 102 255 321.40802 114.048012 3
-0.33379924347220058 -0.3388712646311991 0.57209690933645163 93 255 44 162.432022 62.2080078 3
-0.37149439596625777 -0.27505005700797647 0.59467655546956566 108 137 255 145.152008 110.59201 3
1.0373980596050403 -0.015026737917580912 1.9714930171731666 151 163 255 585.792053 285.120026 3
0.39405825586859211 -0.35525096179682092 2.0436423802195618 174 255 92 454.46405 221.184021 3
0.84962878690100319 -0.60737659024526203 2.7997770051401005 255 227 234 499.392059 203.904022 3
-0.20584594338987072 0.21543181209305418 0.58117483713222251 255 113 133 247.104019 430.272034 3
0.56195058493689798 0.62047959730573621 3.297161122268105 73 119 146 452.736053 361.152039 3
0.7612720652441316 0.57490177381148699 2.3758853636502089 132 145 165 508.032074 381.54245 4
0.70297644069710041 0.58082647702962875 2.4468296053993672 150 166 255 493.516876 379.468842 4
1.0674880742316737 0.60138893933379844 1.601450408597449 9 13 26 640.742493 433.382446 4
1.1178360788552602 0.57504125327265265 1.6788193232090309 103 116 139 640.742493 418.867249 4
0.97246725095761366 0.3437750257852939 1.742833800290672 91 108 255 597.196899 362.880066 4
1.2121451928801066 -0.63233063140860524 1.4186819770835477 206 224 255 713.318481 118.195213 4
-0.50539930034744307 -1.3648059985101824 3.037963404394513 255 36 73 319.334442 116.121613 4
0.81103283237935719 -0.28210760272675334 2.5333417505498943 244 247 255 505.958466 246.758438 4
1.1471921285632676 -0.049827848578601619 1.409029255016983 185 255 137 694.656128 273.71524 4
-0.45137594799108216 -1.8346330310086967 3.2830574868430151 137 158 255 329.702454 70.5024109 4
-0.21255112433805001 -0.24937493184110127 0.57780918167514894 109 130 158 240.537628 120.268814 4
-0.20082568024636283 -0.067192161937706718 0.59364860947429143 120 140 168 252.979233 242.611237 4
-0.47931185468491266 0.29758303468584635 0.64708577320156735 255 200 202 95.3856125 464.48645 4
-0.2659621070967022 -0.35324219521908962 0.56792141692704323 71 93 255 205.286423 51.8400078 4
1.1283944847457299 -0.58239340620459645 1.307358138465565 185 204 224 716.63623 119.439377 5
0.98250624850334289 0.45265871398695157 1.9598047433793777 255 127 146 579.778625 375.736359 5
0.21942454962367686 0.52786254330979521 1.3739720061051468 150 255 152 442.921021 440.432709 5
0.19850086318285864 0.59442858435188095 1.6619893950264348 255 67 73 427.991089 425.502777 5
19.078757618411728 -31.113132437852553 58.559765622366349 218 255 173 510.105682 84.60289 5
0.81103283237935719 -0.28210760272675334 2.5333417505498943 255 240 243 507.61734 243.855392 5
0.53826097721117083 -0.50576649509976623 2.9651727123001619 255 121 159 455.36261 221.46051 5
-0.21136368337820333 -0.026712949697295429 0.53373471914141302 119 138 166 236.390427 266.250275 5
0.93339939529263927 -0.27440890517491157 2.073237865001496 244 246 255 557.383789 236.390427 5
0.78434182453150858 -0.58005402590051336 2.6719590824785486 255 227 234 495.175751 204.042267 5
-0.34191472643482834 -0.046519472921903948 0.77478949907002193 255 85 109 211.507233 266.250275 5
-0.22338511499956137 -0.37199312802621465 0.59484638138879831 95 255 42 238.878754 47.2780876 5
0.66848690591156523 0.57651459777042247 1.1515863199929974 255 155 154 607.150146 480.245819 5
0.14935082558760748 0.052250152972271341 5.2547858724000935 255 132 150 395.642944 291.133484 5
-0.12326609126813048 0.66962230361200259 1.8129787479618349 255 153 163 355.829803 430.479431 5
1.072349217279307 0.549287580988714 1.6073421419378118 132 157 255 641.986633 418.037811 5
0.16360828404319872 0.64475634332194254 2.2150731865945215 255 139 153 415.5495 403.10791 5
0.56329703156508737 0.62525001481875431 3.3384511028253163 74 120 146 452.874298 360.806458 5
0.15728024430272725 0.56749100676607078 2.3233738659511367 255 59 82 415.5495 380.713013 5
0.19555746303074528 0.61445515785678806 1.7438353911848479 61 255 42 426.995789 424.009796 6
0.30372852571728992 0.53422634379706901 1.6979887978281241 172 255 136 450.883667 406.093903 6
0.39254224487977729 0.50054259562602865 1.9347082859095233 255 150 171 459.841614 385.192017 6
27.736982548982532 -28.693813802887611 71.458114361572981 255 201 214 531.505249 134.369308 6
0.55269929013556696 -0.49412328748729062 2.9784464942750022 144 164 255 453.869659 220.96286 6
0.53112783837089883 -0.49277900506533134 3.3102470489851985 60 114 144 444.911713 229.920807 6
1.0509969370421968 0.24734570331873948 1.9635974500902265 255 95 104 591.224915 337.41626 6
-0.27001938646714629 -0.14203231611409717 0.62138373376453782 117 134 163 220.96286 206.032928 6
-0.50385631057528446 -1.3688395371303552 3.0051910945595575 255 36 73 319.500336 116.4534 6
1.0838821781150942 -0.53434536622639239 1.9054214444995461 217 228 237 600.182922 185.131042 6
-0.26534269697471569 -0.036436768788907337 0.59670957732862595 93 116 141 212.004898 265.752625 6
-0.072954257683608414 0.069130384906363113 1.9658210018596085 178 255 168 370.262085 301.584442 6
0.18190092843337458 0.62294512336220309 2.6003367849246173 255 48 75 415.051849 382.206024 6
0.4441323439085274 0.6429955995616361 1.9161476585350306 255 127 142 471.785553 418.037842 6
0.95001312888096412 -0.47549415126562233 2.2692984698293142 227 234 241 540.463196 206.032928 6
-0.25475283271884486 -0.24494704065663325 0.57227780147148888 87 108 139 212.004898 122.425369 6
0.35355095063384456 0.62346318144184876 2.0541539689926696 255 137 150 447.897705 404.899536 7
0.080166959295856932 0.73274813149715901 1.8818803064705723 158 160 255 397.733154 437.148163 7
-0.24358449618817657 -0.1169614455457138 0.58060198686014486 162 255 117 222.157257 207.824539 7
1.2061457141534504 -0.63485356402930249 1.5108343643392868 255 215 222 695.137207 121.828178 7
0.79000096911453133 -0.2824891206908719 2.4420107517934344 244 247 255 505.228607 243.656357 7
0.96911891380901549 -0.50812208744863818 2.3692934968561064 235 242 255 541.060425 207.824539 7
0.80114052329816432 -0.60306381524714781 2.8178013701828171 241 255 227 494.479065 204.241348 7
0.51420376394023992 -0.48838105173351309 3.3011397730867191 60 114 144 444.314514 229.323624 7
-0.53651956600408157 -1.3887096381146971 3.0737168822016034 101 255 38 318.903168 114.661812 7
-0.46575158798145688 -1.8360467756104462 3.2872842905488602 138 159 255 329.65271 71.6636353 7
-0.28335604240714751 0.32269068498669395 0.56405316270137718 53 79 255 193.491806 505.228607 7
-0.32259962729865821 0.31112217748388649 0.55750492910705951 38 64 85 168.409531 505.228607 7
1.1855371855398964 0.40337392225943824 1.4721071396166749 255 131 148 687.970886 394.149963 7
-0.078526143594261022 0.07327164586526877 1.9979769791056858 179 178 255 369.067719 304.570435 7
-0.2472076395969478 0.65446976690157632 3.3389822017812723 172 255 134 358.318176 358.318176 7
0.39425399272225681 0.36757514945421155 3.571959938684178 255 126 148 419.232239 322.486359 7
0.13732768758943248 0.079763867731897892 4.8669092843829169 177 255 143 394.149963 293.820892 7
0.62036218929890707 0.68917930149092921 3.7708146817152368 255 35 106 447.897705 358.318176 7
1.0812503137603846 0.5736511298322815 1.6428680839072696 58 255 23 634.223145 419.232239 7
-0.24959193807180924 -0.25018713728655001 0.56296470013120148 255 79 102 211.407715 121.828178 7
