ply
format ascii 1.0
comment Written with hapPLY (https://github.com/nmwsharp/happly)
element vertex 159
property double x
property double y
property double z
property uchar red
property uchar green
property uchar blue
property float ix
property float iy
property uchar octave
end_header
1.0040142198248017 0.55507107205094941 1.1379168306815157 79 79 255 721 475 0
-0.8035818878358798 -1.5688300772914072 4.9581386788457085 233 255 202 322 166 0
0.54928101509568572 -0.64966334773649581 4.0158560990481371 255 53 113 439.200012 225.600006 1
-1.1878641086873998 -1.4709728538482927 2.138004091410711 138 255 91 170.400009 22.8000011 1
-0.47107698474174686 -0.34238200796929652 2.1152173382369401 236 242 255 297.600006 225.600006 1
-1.1353297527685009 -0.45573457574256515 2.0272196610987407 133 155 255 169.200012 201.600006 1
1.0178707112117105 0.56444912510811041 1.1581099699833373 79 79 255 721.200012 475.200012 1
-1.0192381490735682 0.38260548440382791 1.8299863895272752 226 222 255 169.200012 370.800018 1
-1.2113206067234024 -0.38473595957121598 2.7400525883937208 136 255 99 214.800003 235.200012 1
-1.3837539433425117 -0.21497038422879922 2.1314958775126915 255 240 242 135.600006 247.200012 1
-0.73911623431999107 -2.0316480179382506 5.0841415668570171 224 255 181 330 133.200012 1
-1.1732829698436378 -1.0120461630856235 2.0955574097811702 146 255 109 170.400009 103.200005 1
-1.5118049488524252 -1.1085915429554405 2.3224512267396822 214 225 255 133.200012 103.200005 1
0.45633824230688935 0.5199262267375333 1.443982561368915 183 255 151 506.880005 429.120026 2
-1.402164293739653 -0.88104275776875218 2.1368237501736238 218 228 255 129.600006 128.160004 2
-1.2996369931407132 0.3162886161033065 1.905996449005305 196 255 220 122.400002 348.480011 2
-0.315248447575595 0.51342839908150872 2.1574526946568668 230 232 234 328.320007 378.720001 2
-1.3958461957926103 -0.089085353263559208 2.1295604321222008 245 245 247 132.480011 272.160004 2
4.8612343259814992 0.6080572423206998 10.779528218609402 138 255 87 558.720032 309.600006 2
-1.35427136517536 -0.55158106282514818 2.0737270922307491 255 237 238 131.040009 184.320007 2
-1.1934184297112251 0.30511802266189147 2.2318884335965747 85 100 112 180 338.400024 2
1.5474909313178677 -0.44496196029456403 1.7327818003246351 233 236 240 728.640015 190.080002 2
1.4714533173728319 -0.2353229973843034 1.9662757144631704 255 182 186 671.040039 240.480011 2
-0.4902297271723004 -0.6392859584427184 1.9864470052490217 207 219 233 288 165.600006 2
-1.4923524938984398 -0.061500361930157066 3.5405299937120915 76 100 255 221.76001 282.240021 2
-1.1974753588301916 -0.14675061197426342 2.0991537155353934 235 237 255 165.600006 259.200012 2
-1.3314330864545667 -0.2895836554707738 2.324927785885408 238 240 243 164.160004 240.480011 2
-1.4086776759757642 -0.26596991828756611 2.1728875470764293 255 241 242 135.360001 240.480011 2
-0.7270361256895157 -2.0067723279863268 5.0070055179810176 204 224 255 329.76001 135.360001 2
-1.3386528204706125 -0.99704701193784917 2.0565071795601066 213 224 255 133.919998 102.240005 2
0.35613381036528891 -0.67186332412266037 4.4852613943311184 168 255 165 414.720032 228.960007 2
1.5644480117998056 -0.82366643379375692 1.7384189393944824 177 198 220 728.640015 108.000008 2
-1.1175869908263483 0.35459533804129484 1.6933936413959065 225 225 224 132.480011 367.200012 2
0.88800633357389458 -0.47824934710320688 3.2860254507082995 255 240 242 487.296051 231.552017 3
1.3519316369702632 0.48407952354528738 1.5113705650021161 159 152 255 729.216064 414.720032 3
-0.3221184164724904 0.44579628566369123 2.0759297534242456 255 141 149 323.136017 369.792023 3
-1.1220973206969371 0.38253849290167513 1.74758762779582 231 233 233 136.512009 371.52005 3
0.92782016696257519 0.47895364870833179 2.326508539519681 153 158 166 540.864075 366.336029 3
-0.49516119587564988 0.19888241704775603 2.2495897381643504 223 255 215 302.400024 323.136017 3
1.0669342020385724 0.41848147509803091 2.5428321092709254 84 93 108 544.320068 349.05603 3
1.0295852524552245 0.41690249945722091 2.8768728515081614 61 71 255 521.856079 343.87204 3
0.92785831447034783 0.26751348571699235 2.2494946586514137 255 127 144 539.136047 331.776031 3
-0.86074853524285544 0.31326952772334282 1.7496484683250384 255 24 27 195.264023 359.424042 3
-0.77478922825053909 0.43295763047846991 2.0491842452711051 171 255 172 238.46402 373.248047 3
0.85761381560735794 0.41170312578799262 3.0205769722605345 170 255 151 490.752045 342.144043 3
-0.66832861279554345 -0.49840686267998391 2.1515560586485671 231 232 232 260.92804 198.720016 3
-0.78504776948150701 -1.4984614278768882 4.6792894354644616 217 232 255 321.40802 164.160019 3
-0.33667362845047411 -0.034108882589711287 3.6596158037266457 140 163 255 349.05603 283.392029 3
-0.48753131564451202 -0.34809327207966262 2.1548334123101927 255 229 236 295.488037 224.640015 3
-1.3906653088476064 -0.4110241973080333 2.1316119629239734 238 242 255 133.056015 214.272018 3
-1.1415936418166392 -0.68388434414215282 2.0094510671437358 255 175 188 167.616013 158.976013 3
-1.3727039274795576 -0.64051075011643499 2.1127873809731579 239 255 235 134.784012 171.072021 3
-1.1889956500832981 -0.25808411615199195 2.0771562440905793 238 240 243 164.160019 240.192017 3
-1.0130797808229115 -1.9107532117030619 4.5432432967426521 200 223 255 297.216034 127.872009 3
-1.1274466521426905 -1.1284329482680737 1.9975359464945912 118 144 255 169.344009 72.576004 3
-1.1731474872491843 -1.3003204131269956 2.07766994473661 129 162 255 169.344009 48.3840027 3
-1.3570978113166015 -1.3789537826455014 2.0721281999779215 255 129 162 131.328018 32.8320045 3
-1.1371821552225749 -0.84417136379777746 2.0223283921648352 255 102 118 171.072021 129.600006 3
-1.3698552943639339 -0.78098977870403574 2.0879662232471468 219 230 255 129.600006 143.424011 3
-1.3386528204706125 -0.99704701193784917 2.0565071795601066 255 207 214 131.328018 101.952011 3
0.45633824230688935 0.5199262267375333 1.443982561368915 183 255 150 506.304047 428.544037 3
1.2701793378578103 0.38184110432669904 1.5004646775096546 224 225 226 708.480042 383.616028 3
1.2271997683127656 0.35944149236101458 1.7413332226381755 66 75 90 656.640076 368.064026 3
0.29305134471495098 0.38031350168945122 1.2491188304263274 255 229 228 475.200043 406.080048 3
0.84566922757038754 -0.49838284428807123 4.4156549692409008 245 245 247 460.339264 244.68483 4
0.54378183140405367 -0.44260397689479669 2.8175056452865688 243 255 235 454.118469 228.096039 4
0.56373995149605394 -0.71438475035232929 4.4336824848017242 143 166 255 433.382446 228.096039 4
0.98869609622388499 -0.43723336964915627 3.4066250973083063 242 245 255 497.664062 238.464035 4
0.91418577121755651 -0.50057312671224241 3.4021598368513333 255 240 242 487.296082 230.169632 4
0.19051500907539731 0.39924803088418187 1.6133924825926593 207 203 255 429.23526 379.468842 4
0.042039955311526045 0.51281061427257613 1.8642930528074237 255 213 223 391.910461 396.057648 4
-1.217237743167888 0.2921321413997473 2.0421407376479821 255 132 133 155.52002 344.217651 4
-0.4403537199982237 0.34623756693676172 2.1974668132991551 225 255 225 306.892853 348.364838 4
0.47678401070497123 0.53486174806849462 1.4308665425126943 138 151 173 516.326477 429.23526 4
1.1547240794328166 0.25014106182914353 2.8034324761375995 105 130 255 545.356873 323.481659 4
8.9661102510184332 0.79111345711881875 14.728276729678058 63 132 160 620.00647 304.819244 4
-1.162528694619108 0.18766471584799185 2.9250714828458513 114 125 143 232.243225 317.260834 4
-1.0091052503410545 0.38163560979311534 1.7837355966826891 255 222 223 167.961624 369.100861 4
-1.0726702650985791 0.35115176565972017 1.9961827628698221 35 38 20 176.256027 354.585663 4
-0.71089359759091941 -0.9125841152768468 2.8667935705994942 232 255 204 286.15683 163.814423 4
-0.51614511889820935 -0.26240677266743401 2.2240348786000257 245 255 234 294.451233 242.611237 4
-1.1284705925647036 -0.60991035740852895 1.9901201134083113 255 182 190 167.961624 172.108826 4
-1.3411927798440635 -0.29280031879681118 2.3452715287597226 255 240 242 163.814423 240.537628 4
-0.68322988250297367 -1.8788055296151713 4.7136636390021822 204 224 255 329.702454 134.784012 4
-1.1758000316375408 -1.0012064107593657 2.0751232418847598 195 211 255 165.888031 103.680016 4
1.4040039811136373 -0.65647185487542392 1.7914234538804239 234 255 222 686.361694 147.225616 4
1.4097316133836257 -0.83517758302994616 1.8946326040855452 202 222 255 669.772888 118.195213 4
-0.4553259640373839 0.40200602112871792 1.8493709493597903 160 171 183 288.230438 369.100861 4
-1.0653202011537837 -1.9443594586636146 4.6981131147748574 223 255 176 294.451233 128.563217 4
-1.2500671056868669 0.29526921516887672 2.1052369091334069 131 255 113 154.275864 343.388214 5
-1.0091052503410545 0.38163560979311534 1.7837355966826891 230 228 255 169.20578 368.271423 5
-1.1142135180358776 0.18595355365005548 2.7830909007509153 74 91 118 228.925476 313.528351 5
1.08806604258409 0.45288007650392526 2.63606449614959 66 74 90 544.942139 350.85318 5
-0.30392586982200864 0.47864417358789862 2.1021435735043488 172 188 207 328.458282 373.248047 5
-0.44547971833726452 0.40457810293639196 2.0497782073376265 163 255 134 306.063416 363.294769 5
-0.4403537199982237 0.34623756693676172 2.1974668132991551 225 226 227 308.551727 345.876526 5
-1.6995305779581806 0.58202194679986163 3.5287454831526874 30 35 13 196.577301 355.829803 5
-0.93801673105480798 -1.7273800779215249 4.1052772724103033 223 255 174 298.59845 126.904335 5
-1.0910466342155329 0.47216525974513301 1.3714390837037076 94 116 255 77.1379318 420.526154 5
-0.33803360310178165 -0.020112052897021754 3.5452303241465764 158 255 120 350.85318 283.668518 5
0.84566361259528788 -0.60088784944939844 3.2775172125973553 235 238 243 480.245819 218.972198 5
1.1028718150406833 -0.77044985394264098 2.9600143546909168 238 255 222 522.547302 191.600662 5
0.35465347573508521 -0.67646350677674949 4.4501906436714336 255 160 170 415.5495 228.925476 5
-1.0790383833612314 -0.15225690965875038 1.8734011463744111 237 239 240 164.229141 261.273651 5
-1.1905372348347254 -0.25755293981493677 2.0767245181475791 239 241 243 164.229141 238.878754 5
-0.73871267540271823 -0.10264283052858589 2.2078050119144454 220 255 217 258.785309 268.738586 5
-1.3916057322917985 -0.41917034384324303 3.0868694696702548 110 132 255 213.995544 236.390427 5
-0.41678785962851261 0.38584845618921892 1.7164565313409232 255 189 195 291.133484 368.271423 5
0.63321004107033818 0.50602218362620333 1.0407357355616194 99 106 255 617.103455 470.292542 5
1.1960010037642843 0.3567929269032743 1.7021666524943599 100 255 82 654.428223 368.271423 5
-0.67379075743004568 0.38414187754698109 1.7951128271953194 149 255 163 238.878769 367.276093 6
-1.1552837949102939 0.14561031816586031 3.3456471809947415 174 181 255 253.808685 307.556396 6
1.0182656475673242 0.41172707359454408 2.3928435025945953 255 53 50 543.449219 355.332153 6
-0.35401310355420534 0.5062964185751393 1.4813590349859544 37 57 72 292.626495 424.009796 6
-1.3630862243675406 -1.0177720998107163 2.1098349852343898 223 255 203 134.369308 101.523476 6
14.216552308457283 -21.574609337246834 38.595943277945331 183 213 255 525.533264 77.6355972 6
-0.6947431701848048 -0.87819569136167064 2.7431929664053278 231 255 199 286.65451 158.257187 6
-1.0536141631142044 -1.907448136962083 4.6578194960319719 255 176 201 295.612457 128.397339 6
-0.79435970555563307 -1.0979001741538454 5.0479256012742031 241 255 232 322.486328 203.046951 6
-0.70294816920109904 -1.4020361301228799 4.2829364772805194 255 201 216 319.500336 161.243164 6
-0.71964564064675551 -1.9736555386036856 4.9260253607210887 181 204 224 328.458313 134.369308 6
1.4251080726280689 -0.67151201572381058 1.8747591362292364 255 218 224 671.846497 149.299225 6
-0.48734384486172111 -0.34225191012341261 2.1488025316003285 255 229 236 295.612457 226.93483 6
0.82513894650003972 -0.58429936302298513 3.1992793081377515 238 243 255 477.757538 220.96286 6
1.0913166250959172 -0.73346589872551371 3.0423824091620943 238 255 221 522.547302 194.088989 6
0.71730623224079126 0.50128246608563731 1.3360421041684751 255 125 139 591.224915 432.967773 6
0.14898533169473405 0.19984451902586259 4.973880767909419 148 255 104 394.149963 307.556396 6
-0.58604262316429612 -0.16405523137657951 2.2441152700780225 255 167 171 283.668549 259.78067 6
-0.69573119417360729 -0.093836099906592113 2.1099451149142046 217 217 218 256.794678 268.738617 6
-0.43953097754593795 0.40445409033016905 2.015502846947399 173 255 150 298.59845 361.304138 6
0.30731905482418398 0.42681936173808377 1.3487317963377516 219 255 221 474.771545 412.065857 6
-0.77960799365864686 0.36722891682250652 1.4880269202469014 203 208 214 176.173096 382.206024 6
-1.0870989565692972 0.39079106003815506 1.9207877802702193 255 217 216 167.215134 367.276093 6
-0.09766980785881918 0.49321433146119509 1.7776399927185027 236 236 255 361.304138 394.149963 6
-0.3198046787872959 0.4926301720872947 2.1899445333077909 172 188 207 328.458313 373.248077 6
0.53745638102385751 -0.60334691940129348 3.7462402269172284 123 150 171 432.967773 226.93483 6
-1.1933734736916231 -0.78456718080450671 2.0876395401793992 208 217 228 164.229156 143.327255 6
0.256728781728774 -0.52687957312352995 4.5272767898061783 56 62 255 401.316345 243.656357 7
16.14308234600918 -18.956505902194024 33.150059053609084 210 255 141 566.1427 71.6636353 7
-0.76488611677495832 -1.4612502017359628 4.464468715717663 231 255 201 318.903168 161.243179 7
1.9781399121783696 -0.066400004411500901 3.0020983449556136 145 175 255 637.806335 275.904999 7
27.41601377400638 -28.77879261212734 72.934698690919831 228 255 200 526.727722 136.160904 7
-1.4187893633423307 -0.4566688889297148 3.1543614988311965 255 94 108 211.407715 236.48999 7
0.8501808972544781 -0.52096413885539006 3.4459228135760549 241 243 245 480.146332 232.906799 7
-1.3830996809942988 0.25020241258773224 2.0088228765247425 200 255 197 118.244995 340.402252 7
-0.46832812583072814 -0.47095869298104742 2.0382443465579314 232 239 255 293.820892 200.658173 7
-1.8393204451638141 0.487995226871895 2.7279028771035678 213 196 255 125.411354 358.318176 7
-0.73190871715691364 -0.10460906529516883 2.1702291896989276 218 255 218 254.405899 268.738617 7
1.1002223238588771 0.2234693556864579 2.6864649423870519 100 114 139 544.643616 322.486359 7
-1.1081184343071739 0.26192310145366515 2.0612625559832045 255 99 116 175.575897 336.819061 7
-1.1949195389457485 0.074829415708851044 2.4993403553986369 98 115 131 200.658173 304.570435 7
-0.47001908968926642 0.21204608140198763 2.0662476464869659 205 210 255 297.404083 326.069519 7
-1.1348973759576695 0.18161587956816977 2.809287052746849 89 115 255 229.323624 315.319977 7
-1.0870989565692972 0.39079106003815506 1.9207877802702193 194 188 187 164.826355 365.484528 7
-0.32118216352567819 0.44052866731694468 2.0155615885628357 193 206 255 329.65271 372.650879 7
1.2838396375106613 0.47253322253071561 1.5551262507741539 255 158 158 695.137207 404.899536 7
-1.1895614481149694 -0.97734326163196927 2.054167885290294 187 199 215 164.826355 103.91227 7
-1.3630862243675406 -1.0177720998107163 2.1098349852343898 201 211 224 136.160904 103.91227 7
-1.3319109692385087 -0.24978128207323191 2.0781650133645573 240 242 245 136.160904 243.656357 7
