ply
format ascii 1.0
comment Written with hapPLY (https://github.com/nmwsharp/happly)
element vertex 128
property double x
property double y
property double z
property uchar red
property uchar green
property uchar blue
property float ix
property float iy
property uchar octave
end_header
1.7459553582922103 0.18713962901785183 4.757149415272643 120 255 85 526 301 0
0.27638206087751577 0.42599574880809282 0.70987542205731091 206 210 209 532 517 0
0.35003933998424031 0.45297118209347165 0.80462801197062239 208 211 209 552 505 0
-2.3280720670180073 -1.0775580557156299 3.700136271898232 229 255 220 142 176 0
-2.214419661999262 -2.7259641958691456 4.1328485963781496 175 255 95 178 34 0
-2.1330674413011717 -2.3435318126460825 3.6291774705772939 131 176 255 157 40 0
-2.1243156413174522 -0.36655101058367023 3.6542395400201952 234 236 239 160 250 0
-2.1294296821097549 -0.6633258007652576 3.6685433419857776 226 229 235 160 220 0
0.22335921640033518 0.2851160262597523 0.79912022136934158 214 213 255 493 424 0
-2.3078168913296242 -2.3256912721223872 3.737816249273116 134 179 255 145 49 0
-2.3623646158671421 0.1645227241318632 3.6652996948476981 221 215 225 136 304 0
-2.3134388063206939 -1.4333984146447658 3.6861082620233789 255 192 202 143 139 0
-2.4104934993586213 -1.5737195860428197 3.829424040169175 214 255 189 142 130 0
-2.1682955023637587 -1.381774465224928 3.7274711793411459 191 202 216 160 145 0
-2.1893978610054705 -1.6143000536316432 3.7591293812793785 215 255 196 162 124 0
-2.1779282255452794 -0.27963616720714646 3.6776521978318999 238 240 255 157 259 0
0.22480268678381243 0.43474714335313647 0.73157157889158075 209 255 207 502 517 0
1.6179401783774638 -0.16195972186903976 4.5683647006004717 56 84 109 520 274 0
-2.2453972914779818 -1.8080603225575387 3.6533580219063242 156 175 201 148 100 0
-2.2471991525585491 -0.30405975648314931 3.5875176896926333 239 255 236 142.800003 255.600006 1
0.49056802426183371 0.28147424186206116 1.302058499355139 67 81 99 528 369.600006 1
0.40685433736327553 0.28061852886941313 0.43303420423596106 202 202 200 744 537.600037 1
1.2865574845014072 0.42113579693241826 1.4506739172962957 255 69 69 727.200012 399.600006 1
1.1950702391282528 -0.084026718124806068 1.4080795945540978 241 243 255 709.200012 265.200012 1
-2.023731615339571 -2.1112260108092453 6.6785827075803494 255 208 215 267.600006 165.600006 1
0.33667817970856473 0.42899260412074081 0.75123726327474638 255 209 212 555.600037 507.600006 1
-2.0897623664531113 0.09173029724063303 4.4879737980625567 88 105 255 205.200012 295.200012 1
1.1261903766977364 -0.80928400501911235 3.5120309087189998 255 169 182 507.600006 199.200012 1
0.05300032299128854 0.10306794297587282 0.43453338417262255 46 45 41 432.000031 378 1
0.12319293185809366 -0.026842702256913417 1.1694215817487057 241 242 244 424.800018 277.200012 1
0.13289451716611289 -0.25214869613302576 1.178769912810526 228 234 255 429.600006 205.200012 1
0.13273483434155176 -0.2955173637865976 1.1843328125996766 219 229 255 429.600006 193.200012 1
1.2401837809744611 0.040711875778153689 1.4285227229813531 239 244 255 717.600037 298.800018 1
-1.4305701235076436 -0.70912753074801227 4.0302108227617515 213 213 255 249.600006 222.000015 1
-2.1729893793088739 -1.0846954326924791 3.7205300910979173 255 208 216 159.600006 175.200012 1
-2.2974690481984568 -0.5192625625817533 3.665562681999802 238 255 234 142.800003 235.200012 1
-2.2753019599655269 -2.1561312145233886 3.7060759900199423 255 124 150 147.600006 63.6000023 1
-2.2024396048292245 -2.5166002697989143 3.719378630307566 96 129 173 156 27.6000004 1
-2.3482598830267456 -1.8778095016814698 3.8201215432967066 255 155 174 147.600006 99.6000061 1
1.1414361656067089 -0.15453450986667805 1.6011602029901066 255 120 133 655.200012 252.000015 1
1.1029637310799727 -0.42979439889521626 3.427382249936711 255 68 93 507.600006 241.200012 1
0.22123922813040275 -0.52585491907904669 1.2118867154829622 185 208 255 453.600006 121.200005 1
0.26022498061357485 0.35899245557630238 0.72287756410455717 255 208 211 523.200012 481.200012 1
1.104975128746001 0.085893857697444551 1.5740022350085101 90 255 52 654 309.600006 1
1.2925301037282961 -0.035339322374787235 1.4339029114716646 240 241 243 728.640015 277.920013 2
1.3014633302141037 -0.12242828117386939 1.4401114270633564 243 255 240 730.080017 256.320007 2
0.27542935856218714 0.42561995350140147 0.71432512146220095 255 206 210 531.360046 516.960022 2
-1.9673447918996745 -2.0543887235309342 6.2259067792749665 255 182 199 263.52002 159.840012 2
-1.5854969344562884 -0.59279715907587505 3.7015672772385075 158 163 171 220.320007 226.080002 2
0.22216881626609941 0.27580771394806836 0.77682027718260305 210 214 213 492.480011 423.360016 2
1.3321644284570606 0.32545228350581645 1.467318732419562 255 114 115 731.52002 375.840027 2
-2.7861190825577271 0.52657890442539346 6.0026476866399268 255 39 44 207.360016 322.559998 2
-2.3253942945931039 -0.37360264824610429 3.6991760644202696 233 235 238 144 249.12001 2
-2.0845218393360443 -1.3404928180062086 3.7281110266995761 189 201 217 168.480011 149.76001 2
-2.2923807886623679 -1.5169901361346543 3.6575375461940158 214 255 189 142.560013 129.600006 2
1.5926332308194016 -0.17125973529169244 4.4885456675146829 82 107 255 521.280029 273.600006 2
0.21818846270013847 -0.52461041012516652 1.2006885044025364 186 208 255 453.600006 120.960007 2
1.0985997247115662 0.086938125886429657 1.5611432861220567 61 76 255 653.76001 309.600006 2
0.43023806102235879 0.38904015495582656 1.7958625110536834 50 66 255 473.76001 370.080017 2
-2.1684841041138592 -1.0957350713015859 3.7020737904388104 255 207 215 159.840012 174.240005 2
-2.1080398295725207 -1.3479411913403181 3.6270500856531172 217 255 192 158.976013 145.152008 3
-2.0571258424639023 -0.23899649264172407 3.6928281494283701 239 241 255 169.344009 262.656036 3
-2.4768763632554678 0.16471527829559329 3.7968541461373237 227 255 223 134.784012 302.400024 3
0.22632710954353674 0.43014051233456346 0.72076531035417513 211 209 255 501.120056 514.944031 3
-2.1661970874751293 -0.37292829990657533 3.7110427295661932 239 255 234 158.976013 250.560028 3
-2.3055308046422747 -2.191176247493277 3.7451838955046544 124 150 186 148.608017 63.9360046 3
1.3154327553213672 -0.033599076748645873 1.465511162999988 241 243 255 729.216064 278.208038 3
1.3287753052817701 -0.12947381578218542 1.4756251899167312 242 255 239 730.944092 254.016022 3
1.0537612512916186 -0.12641956216161723 1.4844839865636681 128 139 255 653.184082 255.744019 3
1.5885755911740755 -0.1722919778673829 4.4699257205770584 82 107 255 521.856079 273.024017 3
0.23062419360043906 -0.49433323051549705 1.1854572457428685 157 179 206 456.192047 126.144012 3
0.26229078895258678 0.35599770530668523 0.71740004498255361 212 210 255 521.856079 478.656036 3
1.3229636184093105 0.10102777626103464 1.4641617802700853 133 255 116 730.944092 317.952026 3
1.3260941375201054 0.33373399298945478 1.4643757742708572 116 118 132 732.672058 376.704041 3
1.1519152697406683 0.34320584486854344 1.6631005286631504 76 96 255 653.184082 366.336029 3
1.5093490973295518 0.17664023440077353 4.2010034477185352 101 124 255 521.856079 304.128021 3
-2.2029641385777716 0.098176333060344456 4.0934072016075707 233 237 242 176.256027 298.59845 4
-1.6745546634350514 -0.20472490750279695 3.7667174896666547 62 83 255 213.580826 267.494446 4
-2.1968376205946649 -0.35165313278897309 3.5561887447679337 235 238 255 145.152023 250.90564 4
-2.0122085522587887 -1.8613378133519238 3.6007124895559697 196 255 141 170.035217 91.2384109 4
-2.349826338817421 -2.4036885057546473 3.763341677646288 131 176 255 145.152023 41.4720078 4
-2.1010541206593398 -1.3390283769564091 3.7612638188328202 255 189 202 167.961624 151.372818 4
-2.2795287376078055 -1.8463353608502413 3.7121512356744328 255 151 170 147.225616 97.4592133 4
1.2905181685924207 -0.11936067711980933 1.4323260325646237 240 242 255 725.760132 255.052841 4
0.12818657019495117 -0.25462662099127004 1.180095729546949 228 234 255 425.088074 205.286423 4
0.79145343194296514 -0.81205084311630238 3.1152120506552357 217 228 255 485.222473 188.697632 4
1.5551603547421249 -0.16398191526583031 4.386660802764621 109 255 51 522.547302 273.71524 4
-2.5656075076058023 0.16929776426705972 3.9336057442709613 227 255 223 134.784012 302.745636 4
1.1034147681312014 0.073867695700934891 1.5868295670263439 63 80 255 653.184082 308.966431 4
-2.2181586381037612 -1.1346018975816348 3.7631852565713806 215 225 255 157.593628 174.182419 4
-2.1889502540446926 -0.26388627676199783 3.9286340158824196 239 241 255 169.20578 261.273651 5
-2.3614644668146654 -1.9185203108074247 3.8184202904921012 199 255 152 146.810898 97.0444946 5
1.1302632038368401 -0.13798670521230411 1.6207843831646445 139 255 114 654.428223 256.296997 5
0.13070162167020982 -0.26055145934664098 1.20594341309971 255 221 226 427.991089 204.042267 5
1.1198997802101196 -0.79039181802923331 3.4889841732356452 255 171 183 507.61734 201.553955 5
0.95693779412058722 -0.86226993726374024 3.2225457859335314 218 228 255 497.664062 189.11235 5
1.3806503644654629 -0.14726686383263202 3.8431141257343508 109 255 51 522.547302 273.71524 5
0.22536108874359795 0.42618485845936466 0.72143485494018311 209 255 207 502.640717 515.082336 5
1.2286871474342735 0.049575494861350239 1.4426706924916504 239 244 255 709.171326 301.086761 5
1.1643895206392971 0.35560771084640824 1.4762837661132824 255 94 105 691.753052 378.224701 5
0.84554094133229285 0.1740530941030923 2.4536957647269935 87 98 121 520.05896 313.528351 5
-2.2921409090124096 -1.1339865820628621 3.6748176585482795 213 218 226 144.322586 171.694107 5
0.12831040366451063 -0.25764495319178793 1.166923831256063 232 255 218 426.995789 203.046951 6
-0.0038579803670943935 -0.45818607902439501 1.2480728142787871 162 185 211 388.177979 143.327255 6
0.22614896816930663 -0.51207073089644684 1.2051462121642724 158 179 206 456.855652 125.411354 6
1.1106497604757735 -0.79524389946989782 3.4526817357153017 255 170 183 507.617371 200.060959 6
0.9874137898502936 -0.85275631136862551 3.3486912782429377 228 255 206 498.659424 194.088989 6
-2.2227097663512505 -1.1359520285171543 3.7665438208019419 224 255 206 158.257187 173.187103 6
1.0939895957621057 0.066025565940129261 1.6048116847932874 94 255 69 650.944641 307.556396 6
0.85936507406245588 -0.25308139803539403 3.1060728331799039 126 163 255 489.701477 256.794678 6
1.1225891247427779 -0.13350355843373538 1.5931893920669753 127 138 255 653.930603 256.794678 6
-2.5307244677668712 -2.2775925783796755 4.0050971882053554 255 125 151 143.327255 68.6776428 6
0.2583035784230357 0.35657324559542675 0.71303401677368783 210 255 208 522.547302 480.7435 6
1.1793792834413765 0.3527215942950947 1.5097483592374785 96 118 255 689.762451 379.220032 6
-2.0946264609194722 -0.45799976725015046 4.2507727317714883 255 84 101 191.103012 241.864746 6
-3.0262963021351688 0.18313348588606149 4.5384603064973073 255 233 236 131.383316 298.59845 6
0.73573092408456942 0.42608584029426105 1.3483610067338296 181 255 206 594.210938 409.079895 6
0.2043360188847837 0.41073508185067331 0.76160772466328308 255 207 211 483.729523 494.479065 7
1.192553012348095 -0.20861867632398742 3.5197502076461404 62 100 128 512.394958 257.989075 7
0.84152320036790418 0.40127913810427507 1.0840188136217961 255 207 210 687.970886 426.398621 7
-2.1885608719132281 -0.35165524346692528 3.5728318526973206 238 255 233 146.910446 250.822708 7
-1.4872323623205208 0.20112588171802337 2.5067408909433806 156 255 136 154.076813 318.903168 7
1.0915969553804505 0.076191920905464103 1.5727234424891114 64 76 93 652.139038 300.987244 7
-0.0060982308619037529 -0.45762233334208202 1.253096504872973 211 255 161 386.983612 143.327271 7
0.12860156607677187 -0.29724135465009571 1.1673012057999126 229 255 211 426.398621 193.491806 7
-2.2290259829388201 -1.1401037807303323 3.7682510907556468 212 224 255 157.659988 171.992722 7
-2.3795331281075844 -1.8310555257245935 3.7913151764196664 255 163 180 143.327271 103.91227 7
-1.5279213703630097 -0.70489221408331837 3.561840196872021 142 255 79 218.574081 211.407715 7
