ply
format ascii 1.0
comment Written with hapPLY (https://github.com/nmwsharp/happly)
element vertex 182
property double x
property double y
property double z
property uchar red
property uchar green
property uchar blue
property float ix
property float iy
property uchar octave
end_header
-0.41332139949963231 0.28596483661393945 1.1997530944567862 159 162 255 253 379 0
0.45072746415506093 0.26868333821897189 0.99676848273656449 53 53 255 557 391 0
-0.25419718506664735 0.34745939553644761 0.57726356622774766 154 255 151 214 519 0
0.41918304407737023 -0.09813072002070411 0.99507614340174666 75 85 97 544 250 0
-0.018933658362727757 0.2005654836604143 0.81680415209060719 140 148 150 376 382 0
0.04941091190203882 0.43084356691338743 0.67482510792305161 69 73 91 412 535 0
0.10531280281316199 0.33258566062957662 1.4966655749442386 194 196 196 412 373 0
-0.042247778619416809 0.20333600854663958 0.5977637186637772 91 255 66 358 418 0
-0.60665386396515286 -0.0036321625064826037 0.73552616852877883 255 230 231 67 286 0
0.46298984408157501 0.37124427863411769 2.7214136681402556 59 75 255 449 340 0
0.15010806420762701 0.45724101300184616 1.4851035686881071 255 211 213 423 406 0
-0.51914681654142714 0.30662580080928592 0.7479019863595523 87 255 53 118 445 0
-0.59810568500765782 -0.39847627398321156 1.4750502752445651 218 255 200 226 184 0
-0.58643951749269296 -0.5597320947564427 1.474814035036162 142 165 194 232 142 0
0.52262219202570781 -0.152176201819023 1.8334685366290266 255 219 223 491 256 0
-0.049390588266234103 0.21399925227343997 0.54186158302074761 184 186 255 349 439 0
-0.59765137554160763 0.030552367836110938 0.72052031168711017 194 177 187 64 304 0
-0.51833001358121789 0.17774781525411046 0.97414447839699314 154 164 255 181 358 0
0.49620569754454735 0.35297043787034454 0.99200497488549333 190 186 255 577 424 0
-0.23046677638214264 0.34159405279406507 0.61564692842799462 166 170 255 241.200012 501.600006 1
0.62276850451691501 -0.085442212306052284 0.94595928855631806 233 236 255 637.200012 253.200012 1
0.43601698836951502 -0.15375677677263827 0.56189940101776192 204 216 255 681.600037 183.600006 1
0.10233927736400129 0.35707276493439399 1.4560701532752756 255 146 152 411.600006 381.600006 1
0.16507183011282445 0.18469659264653226 2.1099695183834961 255 44 54 411.600006 321.600006 1
0.39314822221355772 0.43817643400150275 0.83040461920766406 76 102 255 565.200012 489.600006 1
0.63558004084786091 -0.012596041671514544 1.0051701888009155 184 184 189 628.800049 283.200012 1
-0.53020325165685267 0.43243974437443256 0.88360343786164852 155 158 157 156 475.200012 1
-0.40375385926104612 0.13255180614834269 1.479674631022057 165 170 255 277.200012 321.600006 1
0.65639419404355093 0.13698451180451227 0.99984572371718516 46 61 255 637.200012 340.800018 1
0.45830143632406023 -0.065198015308218865 0.83056059517427849 221 255 205 594 258 1
-0.023623224361438433 0.21294066092676728 0.7268416876458399 149 148 255 369.600006 399.600006 1
-0.27177559651522848 0.42087327016060783 0.62161477109000285 38 55 86 216.000015 547.200012 1
0.26173578852698903 0.45944965337410393 1.6611681263667115 62 80 255 445.200012 393.600006 1
-0.29595671099831006 0.28632381120261546 0.91637697372979399 255 160 165 259.200012 409.200012 1
0.48189421680735378 -0.12053531854810659 0.9797688954467948 22 28 255 573.600037 241.200012 1
0.49451157886716052 0.3905571193999523 2.8773462933826699 52 64 79 448.800018 339.600006 1
-0.32333230927614848 0.39142887949073468 0.59776510087879131 255 147 150 175.200012 540 1
0.44869564250574817 -0.028013600408444195 0.99074734350210003 255 127 139 555.600037 277.200012 1
0.43906222278519857 -0.073369352747430852 0.98401932921876267 255 128 140 555.600037 259.200012 1
0.40984818782643695 0.43875148083803378 0.83928057521230937 255 54 74 571.200012 487.200012 1
0.1175563616338294 0.41085191308623309 1.4856008295095682 111 255 71 414.000031 393.600006 1
0.24498713478928869 0.41186645168938402 0.70488775198381215 191 189 255 517.200012 513.600037 1
-0.59238884983649287 -0.56399015483774428 1.4837785190615829 255 143 165 231.600006 141.600006 1
-0.27875687805710103 0.30775769982911272 0.62456615634378954 59 88 255 213.600006 475.200012 1
-0.016993437848159376 0.39081918686823092 0.74348151820022024 0 13 255 373.200012 490.800018 1
-0.50729062833194871 0.32683164263107967 0.88248376732719591 156 255 133 162 429.600006 1
-0.58948859294798217 0.031402085622684706 0.74829941786012555 175 185 255 81.6000061 303.600006 1
0.029973589920208737 0.40930615923294789 0.85077691669514055 82 101 255 397.200012 474.000031 1
0.53537852110899409 0.082293114269346934 1.9453699804574114 69 86 255 489.600006 304.800018 1
-0.52608181943903831 0.42890383184867131 0.87637370117782487 255 160 162 151.200012 478.080017 2
-0.57392529396354885 0.38958606265167001 0.86963150240759901 66 86 255 133.919998 459.360016 2
0.42004550622412545 -0.0992994129688968 0.99733827690898758 64 255 22 542.880005 249.12001 2
0.44914561328924663 -0.14419366725306754 1.0376703812788999 255 117 131 547.200012 234.720016 2
0.56739023386948739 -0.063700928611512067 0.83425586862285972 236 255 232 642.240051 259.200012 2
-0.60207410053351573 -0.40196488270832936 1.4845730612536907 218 255 200 226.080002 184.320007 2
-0.27177559651522848 0.42087327016060783 0.62161477109000285 73 98 255 217.440002 545.76001 2
-0.23736194559206708 0.39849195890828665 0.62258895188867924 255 151 154 239.040009 535.679993 2
-0.25094993992574155 0.34140349355452526 0.57011199504435506 153 154 255 213.12001 519.840027 2
0.4093692804883407 0.20766844503517329 0.47787635339674994 255 59 75 715.680054 455.040009 2
-0.35757331091376898 0.16060877140645227 1.4726932179955581 35 60 76 292.320007 329.76001 2
0.43433589513641369 0.28016818979013935 0.51788308860273458 69 97 255 705.600037 498.240021 2
-0.074948747719670417 0.19784232725187595 0.80727704101073439 106 120 255 349.920013 381.600006 2
0.19896180336910063 0.34901335252659366 1.1336227972020534 213 213 255 449.280029 406.080017 2
0.34910714348785749 0.43423534598053815 1.5558874301674164 114 255 84 470.880005 396.000031 2
-0.31737563845221628 -0.36111117979545143 1.4054119260518245 255 40 75 299.52002 188.640015 2
-0.33442328129877968 -0.4866999972459285 1.21816439028705 153 190 255 277.920013 135.360001 2
0.50738449306767031 -0.073035795279401933 0.93388437102018762 208 213 255 593.280029 257.76001 2
-0.54173753984981321 0.42004751813091351 0.73413630292159038 32 255 13 102.240005 509.76001 2
-0.39879688246769118 0.27786001406759331 1.1662322781853738 162 255 149 254.880005 378.720001 2
0.41543405997626842 0.43570322491468616 0.86404460256767579 110 255 60 570.240051 483.840027 2
0.40637601684519054 0.46031218096651555 0.87797157087649114 54 72 99 564.480042 489.600006 2
0.029747958836428195 0.42356630573865311 0.87981936901743152 85 106 255 397.440002 472.320007 2
0.048820097939508325 0.43694218261344936 0.68551762642801428 75 93 255 413.280029 535.679993 2
0.63524647464149664 0.056895837275883668 0.96579049968520903 99 120 255 637.920044 312.480011 2
0.39075883349459761 0.036190816800307529 0.48615818950026973 255 52 66 691.200012 315.360016 2
0.68194004967391131 0.2524610572209528 1.035874638868852 94 120 255 637.920044 384.480011 2
0.45713842934788884 0.10187078245432515 1.0379908326103471 60 255 64 554.400024 325.440002 2
0.54292451192075597 0.080247864749812436 1.9950187998899229 57 69 87 488.160034 303.840027 2
0.45301165573478974 0.17773390605664363 1.0158471632004842 255 102 118 555.840027 354.240021 2
-0.6140261129416742 -0.54558552238999081 1.471174134910662 197 255 150 222.912018 145.152008 3
-0.039397091216726493 0.26507047064171047 0.4536825091853588 67 255 57 350.784027 513.216064 3
0.50556191644206483 0.095299675417932744 0.8647007424730262 108 255 109 606.528076 330.048035 3
0.50563278415125135 0.22042047289768477 0.86475961470881391 30 255 13 606.528076 385.344025 3
-0.017300269352339609 0.23192231855201523 0.74333442655173587 158 159 255 373.248047 407.808044 3
-0.034483048135107275 0.23788401308577697 0.88984726189229169 255 136 138 371.52005 392.256042 3
0.087663346346487397 0.2511235277973769 1.1356784277047789 255 192 193 411.264038 371.52005 3
-0.13094867728870271 0.26279895782604501 2.0254608733152697 255 18 52 359.424042 338.688019 3
-0.37986836285214565 0.30065819676104205 1.2813119007278961 157 163 255 273.024017 378.432037 3
-0.36259193798705358 0.25507794128782746 1.0830844112494178 255 150 159 255.744019 378.432037 3
0.53396568664583566 0.011137955177162491 0.92886257504115144 16 255 0 606.528076 292.032013 3
0.22810606178113177 0.37399996098518973 3.1798486370864771 61 255 34 414.720032 335.232025 3
-0.30899554999762391 -0.35711483349274753 1.3854715036020993 38 74 103 300.672028 188.35202 3
0.50083541865224945 -0.072704950572138036 0.91820499875295802 182 189 195 592.704041 257.472015 3
0.52877123697724393 -0.1732638085557974 1.2523770468395927 255 116 130 547.776062 235.008026 3
-0.10494071194872459 0.25867111612921806 0.51720208247348454 95 117 255 309.312042 478.656036 3
0.68807869327721016 0.35998317663517204 1.0534633374061313 255 200 193 635.904053 419.904053 3
0.40507989257661747 0.25611160058875826 0.47144850830498319 255 67 82 715.39209 495.936035 3
0.24471111095281783 0.44375076654805873 0.74142051234938877 174 170 255 513.216064 518.400024 3
0.24747404789732086 0.42293670677111395 0.72072628526549543 184 186 184 516.672058 511.488037 3
0.40482209650911932 0.15435069060401874 0.47061852279332894 255 158 155 715.39209 412.992035 3
0.57213860107642078 0.080406210389171076 2.1798179911696809 255 56 66 487.296051 302.400024 3
0.34566206284895085 0.3395746569248293 1.4413725678754767 255 110 116 475.200043 378.432037 3
0.041178431989669806 -0.9616082540328843 3.34972154176018 255 138 164 387.763245 176.256027 4
0.09583058348110754 0.31225723304917291 1.4322598691629873 193 255 189 410.572845 371.174438 4
0.12000260822594086 0.41431964422644507 1.5409366739576114 121 255 91 414.720062 391.910461 4
-0.21059335402556301 0.29660730314256989 1.1973405019023609 255 4 18 315.187256 379.468842 4
0.59959181714021204 0.41608475171270176 0.93468992658794736 64 78 105 628.300903 460.339264 4
0.25141219414614241 0.43368448722184766 0.74139584663297553 187 188 185 516.326477 512.17926 4
0.031040037007430923 0.4181733451410079 0.86555918544164734 96 255 71 398.131256 472.780853 4
-0.55186059959431466 0.44653942116748713 0.91412193449155865 157 156 255 153.446426 476.92807 4
0.67794643364664675 0.25149956369811599 1.0217173204614682 109 255 71 638.668884 385.689667 4
0.61808614488450142 0.056210526145669994 0.92078986160061127 124 255 96 638.668884 311.040039 4
-0.6140261129416742 -0.54558552238999081 1.471174134910662 255 150 170 223.948837 145.152023 4
-0.50973056236453618 0.39786042135280147 0.69439752323876269 23 45 255 101.606415 510.105682 4
0.051890194255074608 0.41451559691321854 0.64779551106169031 65 68 87 412.646454 532.915283 4
0.53324441454083016 -0.077389694788964736 0.96735825204030546 208 213 255 593.049683 257.126434 4
0.40481235710733388 0.10525095918355451 0.47063801063890104 255 51 64 715.39209 373.248047 4
0.4362552677539932 0.034303537011906755 0.55285429604577119 79 255 67 690.508911 315.187256 4
0.34566206284895085 0.3395746569248293 1.4413725678754767 98 255 71 474.854462 379.468842 4
-0.26761294791596613 0.36475232781007455 0.59462896603661941 255 153 144 211.507233 522.547302 4
0.44731495445610214 0.21439638146315518 1.6313004659028574 161 169 255 485.222473 337.996857 4
0.3673485682967067 0.45575407679060204 1.6677967451943607 114 255 84 470.707275 396.057648 4
-0.339566842850963 0.3798622861619726 0.64291747633495167 155 157 156 180.403229 514.252869 4
-0.17497303815742277 0.23321803683328934 0.59430360118008652 140 255 147 266.250275 437.944397 5
-0.20499079219823002 0.28685918918160419 1.1812266001842466 9 23 31 316.016693 378.224701 5
0.66428620221793633 0.054280215276416917 1.0050185299675094 255 100 105 639.498352 311.040039 5
-0.085030695904226211 -0.86892312351978018 3.341395676484276 65 97 255 373.248047 186.624023 5
0.49379445683957457 -0.14549750004503767 0.93687157328175064 255 128 141 587.243591 228.925476 5
-0.48149687626408477 -0.26574416843675736 1.3406381680859867 140 255 99 246.343719 211.507233 5
0.37948203508518241 -0.010042632272794991 0.43367528330324395 46 55 73 716.63623 278.691895 5
0.2427909010410641 0.44921080776026573 0.75089955969128841 177 177 175 512.593994 517.570618 5
0.42867006836214783 -0.11148940114499736 1.0320261777590309 63 255 22 542.453857 246.343719 5
-0.34546193381537244 -0.50683298691121137 1.2926865106507206 189 255 122 278.691895 134.369293 5
-0.64753829129678964 -0.57333934347052395 1.5371271614928359 255 150 170 223.948837 144.322586 5
-0.22450939906696177 0.33532622876695672 0.60022759546747062 165 168 255 241.367081 500.152405 5
-0.04228194085732484 0.26785058123419181 0.45820037801011509 67 255 55 350.85318 512.593994 5
0.39596718517319529 0.25558865307709422 0.9486743956337772 255 72 89 539.965515 388.177979 5
0.3470543693363477 0.33408665158468509 1.4326831078617914 186 186 255 477.757507 375.736359 5
0.43673673395948365 0.02061942814094312 0.96628436080323543 150 255 126 554.895447 296.110107 5
-0.29986365315703989 0.24757440451563195 0.90103867149549499 157 163 255 253.80867 393.154602 5
-0.35380145917015859 0.24841580675750716 1.0658236634733349 152 159 162 256.296997 378.224701 5
-0.054123251086090368 0.20664712911621974 1.0402126505790859 19 53 74 360.806458 363.294769 5
0.39145574683375456 0.24451769511391255 0.44911237780159691 64 79 107 716.63623 495.175751 5
0.35232232999435242 0.25404758960045737 1.5041927308384448 255 87 98 471.785553 352.346191 6
0.23440747147188898 0.33465575779820139 1.4977117918151308 163 166 172 444.911713 373.248077 6
0.26928700135299494 0.24691489073997863 1.4967443501499167 71 255 38 450.883667 349.360199 6
0.42578442570857478 0.27379631008278127 0.4994466132832609 52 69 98 704.692383 498.659424 6
0.43451017394613728 -0.15281918602787428 0.55597649191057974 255 199 206 683.790466 185.131042 6
-0.30490247548263627 -0.35758641077672959 1.3992319572353431 103 255 42 298.59845 188.117035 6
-0.6167244526774972 0.47030745440531074 0.82498865049450476 23 45 255 101.523476 510.603363 6
-0.28400301346261292 0.3754660300083178 0.628080555089924 155 157 158 212.004898 516.575317 6
-0.49590492920467399 0.40841639482787417 0.83644799043611839 255 148 154 155.271194 474.771545 6
0.44758602462547359 -0.1287214469147574 0.8282620284401635 138 150 255 585.252991 229.920807 6
-0.056539998601165375 -0.77269842677497902 2.9186176665014729 65 97 255 373.248077 188.117035 6
0.49167038863037438 0.44583987202083031 1.146762451730936 255 192 193 555.393127 435.953735 6
0.45385045548921849 0.032965050053744185 0.57224668745383223 81 95 255 689.762451 313.528381 6
0.40582648498571217 0.17037504497919231 0.49946653227178639 199 196 255 689.762451 421.023834 6
-0.28290188149771223 -0.37504905695062257 1.1121942638460953 255 151 173 283.668549 158.257187 6
-0.45448282558261921 -0.64434045542230767 1.6576636964126008 125 155 190 280.682556 137.355286 6
-0.57101808689814837 -0.55131773553759278 1.4282483109061146 163 192 255 229.920807 137.355286 6
0.51717795564574676 -0.143679555350474 1.8232461502026753 211 214 218 492.687439 256.794678 6
0.43298199638615836 -0.069650316598461118 0.55538676961651368 255 224 227 683.790466 241.864746 6
-0.03952903243791614 0.2612804539788422 0.44249023141860566 62 76 255 349.360199 513.589355 6
-0.094155384473853715 0.11889614831289975 2.420607352063266 82 255 42 370.262085 310.542389 6
0.48159727222939563 0.3166490276485085 1.1919021712345752 90 117 255 537.477234 388.177979 6
-0.7476942932752817 -0.0035165490539288266 1.5387085196622543 220 255 209 194.088989 283.668549 6
0.11757357208020172 0.40342661531307417 1.4930769445309418 255 84 97 415.051849 391.163971 6
0.083380395975780355 0.22792555777911053 1.1858354908069542 173 160 255 409.079895 361.304138 6
0.58398602324406768 -0.142405060699826 0.88039711790769681 220 228 255 637.806335 225.740448 7
0.46914443501528258 -0.073353599252339668 0.61708456967309888 225 227 233 680.804504 236.48999 7
0.40194399398537156 0.35830833027735243 0.98905759182320385 197 196 255 541.060425 426.398621 7
-0.091789489214822551 0.24311937735720016 0.45629645573903305 88 101 123 304.570435 490.895874 7
0.6625384637446613 0.34873409515828857 1.0012603712257573 196 193 255 637.806335 422.81543 7
0.67222500844127608 0.063189479531564327 2.7071557414210448 43 53 71 480.146332 300.987244 7
0.21447589900331354 0.37868444556518466 1.2373124698099807 255 213 214 451.480896 412.065887 7
0.40898222053303168 0.26795535722342617 0.99176475134282849 74 103 255 537.477234 390.566803 7
-0.59263102494338105 -0.016725398384257351 1.2455679857747028 211 214 255 193.491806 283.07135 7
0.040610551114134322 0.4357296764118942 1.8843668847847366 124 255 83 394.149963 376.23407 7
0.087460868297184677 0.32355225249716069 1.6690720619462638 175 174 163 408.482697 361.901337 7
-0.28008286589462622 0.30172653237674668 0.8343774758279453 163 163 255 257.989075 426.398621 7
0.6243652921660432 0.43939773103931695 0.98887697554411269 255 65 81 627.056763 462.230438 7
-0.62492782236576538 -0.54839514317205074 1.4909613683300806 197 255 149 222.157257 146.910446 7
