ply
format ascii 1.0
comment Written with hapPLY (https://github.com/nmwsharp/happly)
element vertex 131
property double x
property double y
property double z
property uchar red
property uchar green
property uchar blue
property float ix
property float iy
property uchar octave
end_header
-1.2694368144018906 -1.0573947916401609 1.6157931697826156 204 255 149 82 37 0
-1.0678586513580028 -0.9826437996648596 1.6463020667091448 53 62 87 136.800003 57.6000023 1
-1.1829543087230046 -0.33721264739984125 1.491501460503422 241 243 255 81.6000061 201.600006 1
-1.2344919556342679 -0.51360449452751311 1.5807021174098712 238 241 255 85.2000046 163.200012 1
-1.7846609679492094 -0.57978434389305322 3.6552685175498247 224 225 226 196.800003 229.200012 1
0.02155150802379513 0.0017799070833959263 5.9281334727955244 139 255 98 386.400024 285.600006 1
0.98357657171793333 -0.44857713817879108 2.7534052839811416 255 235 239 519.600037 225.600006 1
0.96802115092206309 -0.43857686448506239 2.7248957616982574 244 255 235 518.400024 226.080002 2
-0.41537535601278641 -0.33790877765650817 1.8402214501460308 228 235 241 296.640015 214.560013 2
-0.52389014730422723 -0.97506666989611523 4.1155606278346832 135 255 104 334.080017 198.720001 2
-1.031772494392023 -0.58435430844799141 1.5837916114495729 255 63 89 135.360001 146.880005 2
1.082343950157596 0.42384707660593046 2.2832920211074539 255 106 118 567.360046 360 2
-1.6098179228455476 -0.53622258383159049 3.3020508001970104 255 223 224 195.840012 228.960007 2
-1.0681500603678651 -0.978984996719926 1.6404613490029618 255 51 62 135.360001 57.6000023 2
-1.2516085907413226 -0.82165710263874403 1.5990794967803992 255 206 213 83.5200043 90.7200012 2
2.2821455752212967 -0.064082953344630433 2.8540483717313396 148 176 255 689.76001 279.360016 2
1.3346436468298088 -0.093549372905430861 2.3201943282827022 119 152 178 604.800049 273.024017 3
1.3601445007548973 -0.095915075778921555 2.4127715904525431 156 183 255 601.344055 269.568024 3
-0.20160149948694706 0.52954985039678693 1.6408839805619451 233 235 236 336.960022 409.536041 3
-0.34963796997839092 0.43084351016681577 1.5472486287207339 86 255 73 298.944031 392.256042 3
-1.0813535012631501 0.42322206438560039 2.0446063546041096 49 19 255 177.984024 368.064026 3
1.0751298619492016 0.42581622007304831 2.2711601032204642 162 255 117 566.784058 359.424042 3
-1.2643553295973295 -0.030673252960426833 1.6176450334855761 245 245 246 84.6720047 279.936035 3
-1.2038455247320812 -0.25393796970482851 1.838653451182124 68 94 255 129.600006 233.280029 3
-1.2333272011274108 -0.73318814519754472 1.5783814583657931 227 255 211 82.9440079 108.864014 3
-1.0491537411754277 -0.73489112775193077 1.5961200699594191 105 130 255 133.056015 112.320007 3
0.0083455837909989228 -0.023970495735956221 5.7849889010631985 119 140 255 385.344025 285.120026 3
0.5276391193314085 0.51185046463233463 0.89471617746690235 148 173 255 609.98407 508.032043 3
-0.38652712269838041 -0.60580829433268146 1.5274557121046719 226 255 181 286.848022 136.512009 3
-1.0409504671698762 0.20298197043813093 2.454997151849672 203 205 255 221.875229 319.334442 4
-1.0708418870271892 0.35549689501698967 1.9879347821776774 13 255 28 174.182419 358.732849 4
-1.1014367553709334 0.32669484272835225 1.5848796029202501 64 75 61 116.121613 367.027252 4
1.1418483990649402 0.42392499706024012 1.9955050594452244 33 47 255 601.344055 369.100861 4
1.0884933057856601 0.43021350625470345 2.2994304377691011 185 255 140 566.092896 358.732849 4
-0.38739534025963351 -0.31929518966710163 1.7038596680417286 241 255 226 294.451233 213.580826 4
-0.2703227620145896 -0.16525920108518249 1.1979694663059171 245 255 234 294.451233 238.464035 4
-1.2253723714095761 -0.51198845248040525 1.5792418297972763 238 241 255 85.0176086 163.814423 4
-1.2470329403360867 -0.18031388382902691 1.6239721834113539 255 241 242 87.0912094 244.68483 4
-1.0747208448858658 -0.1837430886635632 1.6237260889623548 49 57 84 128.563217 244.68483 4
-0.86920662186642694 -1.7330868528033603 3.7583133733642251 219 255 167 294.451233 111.974419 4
-0.61848601496533018 -1.9456047518454138 4.4712282006093771 255 171 197 331.776062 120.268814 4
-1.2450308061457114 -0.914911917239285 1.6116939987119752 255 155 180 87.0912094 68.4288101 4
-1.2491443213554003 -0.97071475508683314 1.6260555980115052 175 207 255 89.1648102 58.0608063 4
-1.0672207666915599 -0.91321836850136484 1.5980501803886935 68 82 106 128.563217 70.5024109 4
0.45552888714660034 -0.65228426567393361 4.0008844689944203 255 132 154 427.161652 223.948837 4
0.005321042307370849 -0.0021749707760729819 6.4578120652647453 120 140 255 385.689667 286.15683 4
0.39068102353831469 0.406314021881653 0.78508706736118317 158 255 119 574.387268 485.222473 4
1.2880253379401956 0.1002061462082865 2.1796319494202532 255 114 144 611.712097 304.819244 4
1.2588741165538271 0.53678915786754389 2.0387420262435088 45 255 28 622.080078 390.66629 5
-1.1526290283109062 0.32674804037429961 1.6663110280323186 65 77 74 116.951057 365.783081 5
-0.94845440013467597 -1.9010264338240437 4.198497492568011 219 255 167 298.59845 111.974419 5
-0.92946239856498103 0.43430953758622498 1.1340960880245348 231 230 255 69.6729736 435.456055 5
-1.0082571733583539 -0.49671799479310508 1.5193385241251729 255 62 87 131.880981 164.229141 5
-0.013651967583168334 0.013381787100077425 6.0108654993911852 120 140 255 385.689667 286.15683 5
-0.6165602260374845 -0.066892405863567317 1.7087231020995963 224 255 224 246.343719 268.738586 5
0.95063347595018721 -0.49519403793484629 3.0145713448913476 255 236 239 507.61734 228.925476 5
-0.43856036740903326 -0.683369574185554 2.8923537218743558 201 255 227 330.946594 196.577301 5
1.0345434921258927 -0.4826283611754808 2.9969869310603698 238 243 255 517.570618 223.948837 5
0.7344917571697186 -0.49087907718345569 2.926538513298353 239 243 255 477.757507 223.948837 5
-1.2248322493977666 -0.58894191297816045 1.5817174512806869 234 235 238 84.60289 146.810898 5
-1.0758660200126613 0.21503844404972283 2.5129878750026773 201 204 255 221.46051 318.505005 5
-0.58422568182579138 -0.47160186278758798 1.737403661556101 255 228 230 251.320358 184.135712 5
-1.2991946300707697 -0.38199732560620758 1.6972529448847529 255 240 241 87.0912094 199.065628 5
-0.6213942296713757 -1.9804636503704236 4.5537597186811229 196 221 255 333.434937 119.439377 5
-1.2895842436852942 -0.4168133330014171 2.6532571847731337 224 224 225 196.577301 228.925476 5
-1.0924922181523606 -0.2287860417983304 1.6376898644464188 97 255 63 126.904335 233.902115 5
0.14244112856164381 0.53025271662009721 1.3495917629465013 255 198 211 427.991089 442.921021 5
0.2334458426665218 0.25223121360465373 3.9390529581191984 163 178 255 405.596222 313.528351 5
-0.97366296969608035 0.37973373298970942 1.5496691562920559 26 9 255 141.834259 380.713013 5
-1.0988125905610406 0.47454886303708754 1.8546591363990288 16 24 9 152.285217 388.177979 6
-1.0311328809080118 -0.58020785607154612 1.5476596411763057 255 66 91 131.383316 146.313248 6
-1.0956372059796315 -0.75473447476505129 1.6468473437225688 255 72 96 131.383316 110.48143 6
0.068798692495875891 0.53839593822756093 1.0736665580375688 212 210 255 409.079895 474.771545 6
-1.0327364035871582 -0.81294291713900302 1.5718649648117555 117 255 66 134.369308 92.5655212 6
0.0040660088919364235 -0.0072987872916217 6.0296045349917762 120 140 255 385.192017 286.65451 6
-0.24584791140191653 0.52771423715134536 0.99706462657941053 82 111 131 292.626495 495.673431 6
0.65835782527543429 -0.67046523685287607 3.8494987114963726 255 90 131 447.897675 220.96286 6
1.0111822793863654 0.54736678804792316 1.2387077252568788 76 99 255 701.70636 459.841614 6
-1.0715890500898961 -0.96839221623986282 1.6216385400808773 57 68 95 128.397339 56.7337074 6
-1.2680424504175516 -0.988351533996918 1.6693745903003081 174 206 255 89.5795364 56.7337074 6
1.2024913379028526 -0.69641674944022414 2.5749015116462601 214 225 236 564.351074 182.145065 6
-1.0812126119876435 -0.18453503202362043 1.6185813950429386 69 98 255 125.411354 241.864746 6
0.81487711735219837 0.54872012859956354 1.0810137863617495 255 80 94 671.846497 483.729492 6
-1.4552548751986167 -0.12491205885297563 3.2064722185217835 222 255 220 206.032928 268.738617 6
-1.3945802073961495 -0.4425568600371389 2.8706814483752767 255 226 227 203.046951 232.906799 6
1.1978520879372101 0.26241212328397667 2.1596549082540424 131 154 255 597.196899 334.430267 6
0.57348847930727542 0.56362573967313323 0.98962929984921688 160 255 118 606.154846 507.617371 6
0.0050708823729166408 0.55075754819005107 1.4174596761226157 215 255 205 382.206024 441.92572 6
-0.53480281384580675 -0.098596912936336101 1.7031319642357663 136 255 102 262.766632 265.752625 6
-0.38962977377624952 -0.22320413287093654 1.6831315136250846 255 235 239 295.612457 235.892776 6
-1.2239229069647881 -0.0040206017476123179 2.0004752219118354 255 84 105 143.327255 289.640503 6
-0.64240075098704041 -1.4172731649297119 3.9857599662383674 193 212 229 316.514374 152.285217 6
-0.61410383150094017 -1.9665381758063436 4.5078475258992619 255 170 196 331.444275 119.439384 6
-1.0569347100270456 0.40837125927572654 1.3464331620315515 135 143 157 80.621582 403.10791 6
-1.3968352152569121 0.35714867203465783 1.8523315407761141 199 255 222 98.5374908 364.290131 6
0.25705998188336121 0.28092036448251478 4.2913179827140144 182 255 150 406.093903 313.528381 6
-0.44368415514211001 0.49784688130693128 1.7317996776635001 230 230 255 289.640503 400.121918 6
-1.082934245381264 0.53768213413471522 2.6124324342919518 224 255 226 226.93483 364.290131 6
1.0698112993326601 0.52604714262936203 2.0261560068947864 19 26 41 588.238953 391.163971 6
-0.928710577484825 0.30221623918079915 1.7576146922889007 24 26 13 176.173096 355.332153 6
-0.21698680387215896 0.51823611342942466 1.729073111342224 200 214 255 337.41626 406.093903 6
-0.3326519866443034 0.372538660537727 1.7280232278942029 187 255 191 310.542389 373.248077 6
-0.72482132036824076 -1.0968160507215781 4.740161975386771 241 255 232 322.486359 204.241348 7
-1.1034890199002674 -0.22787637894864671 1.6509781673676458 73 103 255 125.411354 240.073166 7
-0.78999809863803039 0.44005279682294235 1.1605496796633692 168 186 255 121.828178 429.981781 7
1.0088968108832266 0.54879492743234959 1.2280428146989952 255 81 79 695.137207 462.230438 7
0.53439192946221636 0.52627008487916505 0.93483478117911201 131 155 255 601.974487 505.228607 7
-0.6752715690442832 -1.4454111938605514 4.0557663630329337 229 255 191 318.903168 150.493622 7
-0.57246859506047842 -1.8380743148883081 4.2151223775273916 198 222 255 329.65271 121.828178 7
-1.2939135202837582 -0.85974036603541859 1.6834288193553872 212 223 255 85.9963608 89.5795441 7
1.1865413267152092 -0.69433726985577704 2.5375200060544358 236 255 215 562.559509 182.742264 7
1.0334258565843564 -0.70291369226762423 2.4969524982695752 231 238 255 541.060425 182.742264 7
-1.0270766691582289 0.21405797625492251 2.3687378473976111 190 255 175 218.574081 318.903168 7
-1.052103564057278 0.11422373392548812 2.2884568432888237 255 172 175 207.824539 308.153625 7
-0.38117886843417281 -0.31117266322208759 1.6806106545076807 234 241 255 293.820892 214.990891 7
-0.37209041177038404 -0.43859710510222616 1.6069784430432978 231 237 255 293.820892 182.742264 7
-0.55784187490720427 -0.45279131206112777 1.685683106187847 239 255 232 254.405899 182.742264 7
-0.63277648562648503 -0.077063634574441375 1.7260159196669247 255 225 225 243.656357 268.738617 7
-0.20386775649537126 0.51021341350135319 1.662139858129775 130 143 158 336.819061 404.899536 7
1.3658964107822844 -0.075195286589609833 2.4273447600851323 153 174 255 605.557678 279.488159 7
1.1797897529070829 0.25336868588474704 2.1352347817820689 158 255 117 598.391357 333.235901 7
-1.2856722593258385 -0.39143023045980352 2.6320889552214322 225 225 255 197.074982 232.906799 7
-0.32868292552067713 0.36118893104644989 1.7342177335926943 255 170 176 311.736786 372.650879 7
0.24471946106678288 0.23909388206828097 4.6357724670514617 137 152 168 404.899536 311.736786 7
-0.9708359950628962 0.41784910397507219 1.4485557816220203 19 23 10 132.577713 401.316345 7
-0.34211932797643296 0.43381286392333163 1.5901275369233523 109 116 123 300.987244 394.149963 7
1.1784904359260038 0.47239746322842358 2.1398187772795136 62 255 55 598.391357 372.650879 7
-0.98191691310509732 0.40914776957984783 1.7448022606323859 255 24 27 171.992722 379.817261 7
-1.0126946944630899 0.29249667106720662 1.6283246543363683 97 255 61 146.910446 358.318176 7
0.3479673535355654 -0.5149651860114195 4.2473442533179098 255 159 172 415.649078 243.656357 7
0.64590330613270619 -0.66167192849004142 3.8693542515071879 255 85 126 447.897705 222.157257 7
