ply
format ascii 1.0
comment Written with hapPLY (https://github.com/nmwsharp/happly)
element vertex 80
property double x
property double y
property double z
property uchar red
property uchar green
property uchar blue
property float ix
property float iy
property uchar octave
end_header
1.1081719819165849 -0.51122369684468738 2.0177563107519276 255 219 229 595 190 0
1.1981206909182154 -0.51900042726969642 2.2912859066196889 255 223 232 583 202 0
-0.29070701458104287 -0.40061589671999842 2.4497206404975289 83 99 255 337.200012 223.200012 1
-0.43343342121547757 -1.813664057408102 3.2341557652948332 81 102 255 333.600006 73.2000046 1
1.1836724344165326 -0.43403988844676211 1.9620832898275484 227 234 241 616.800049 202.800003 1
1.0951398614367838 0.49462469636245388 1.6522612901574609 192 204 255 637.200012 402.000031 1
0.81677685502384034 0.37675747575156093 2.8056683808906691 129 144 161 496.800018 339.600006 1
-0.91824429764928528 -0.57738193617571787 0.98457523254579993 217 217 255 25.2000008 63.6000023 1
0.75533745634795757 0.57724627316151167 2.4020785678221195 151 170 255 505.440033 377.280029 2
-0.29991664186108569 0.57875768161255181 3.0688815179691025 170 180 194 348.480011 358.560028 2
0.74103559215068016 0.34230094007295775 2.5403505081173474 255 133 147 495.360016 339.840027 2
-0.91532046577163495 -0.57563185678229545 0.98199530577362992 255 201 203 27.3600006 61.920002 2
1.2017619545863139 -0.078004413013163409 1.3672718035615077 188 255 105 722.880005 264.960022 2
0.79242901189868253 -0.27291638897418058 2.48475931704965 244 247 255 505.440033 247.680008 2
-0.93059569245630325 -0.0016402617580634216 1.0025611790049327 255 146 147 27.3600006 289.440002 2
0.69803850734434136 0.57643530294812118 2.4918375507713275 134 151 167 492.480042 376.704041 3
0.32402746868998999 0.13610069556810334 4.114092889178746 154 173 193 412.992035 300.672028 3
0.16501739244703728 0.057310894118411171 4.7939004975953745 255 141 158 395.712036 292.032013 3
-0.48035052841492876 -1.3531182383802376 3.0536251662362632 255 37 75 323.136017 119.23201 3
1.0339004057413943 -0.018260251455208765 2.016066847013108 215 255 244 582.33606 285.120026 3
1.0307130305751491 0.3613496274452026 1.9012005308343394 160 255 127 590.976074 361.152039 3
0.21601524424807939 0.63447664971620721 1.8491181876983456 47 52 66 428.544037 421.63205 3
0.84546516839916741 -0.61217846591871405 2.8430755251143021 255 227 234 499.392059 205.632019 3
0.34928133969311537 0.39799124193087487 3.8595629913284197 116 136 158 420.940857 327.628845 4
-0.34344334503083029 -0.049348025349032598 0.81708698403260671 85 105 255 221.875229 267.494446 4
0.75645518469250361 0.5706926806913678 2.4209779596646053 144 163 255 501.811279 379.468842 4
0.2075955257176878 0.60719344051980018 1.7540374597897843 255 68 73 427.161652 420.940857 4
0.96893278157359453 0.3408423286332401 1.7878907998423532 153 255 120 590.976074 360.806458 4
0.58903768754594199 -0.58915645714027465 2.8859589695008872 167 189 203 460.339264 211.507233 4
19.019102093508245 -31.188697537622215 58.58241604604909 175 196 219 508.032074 85.0176086 4
1.0249493536132364 -0.30722869005609454 2.3842376000880927 255 240 243 551.577698 240.537628 4
0.80693122727063016 -0.28651696049174502 2.5771111768964392 244 246 255 505.958466 244.68483 4
-0.43940918411880192 -1.8199014116754899 3.2537500785704765 255 43 81 331.776062 74.6496124 4
0.78035364774153115 -0.58472013005589241 2.7151972189931879 235 242 255 497.664062 207.360031 4
1.1824034561691064 -0.42020308860116107 1.9586603535019842 233 240 255 613.785706 203.21283 4
0.15897298508479585 0.64013622471144971 2.2593151924644248 180 255 127 414.720062 398.131256 4
-0.21252603466608422 -0.028999107898222853 0.57627614521229509 255 116 134 243.855392 266.250275 5
-0.27088721661227311 -0.37957136129937186 0.62854357559502549 93 255 38 218.972198 54.7430496 5
-0.35715220960131422 -0.88057928057200163 2.9120608114191517 0 0 255 333.434937 174.182419 5
1.1605217566525474 0.39026110597672647 1.4816145763696174 151 180 255 681.799805 388.177979 5
-0.5074874269001528 -1.3755040497686939 3.0450561374756129 255 38 75 323.481659 116.951057 5
0.19481477893118981 0.5907544793169468 1.7062068284600986 84 92 255 425.502777 420.526154 5
0.53371616480184869 -0.51119104437225327 3.0081342128292903 255 103 147 455.36261 221.46051 5
0.80693122727063016 -0.28651696049174502 2.5771111768964392 244 246 255 505.129028 243.855392 5
0.26731518473233429 -0.23698404529888883 1.5311050523101972 255 123 164 455.36261 231.413788 5
-0.45492859200840918 -1.8416928568773696 3.3222439478686221 81 103 255 333.434937 74.6496124 5
0.14048145900228337 0.042632811386338454 5.2980267206159564 255 130 154 395.642944 291.133484 5
1.0810784674537415 -0.53741712003831876 1.9492202847595497 227 237 255 597.196899 184.135712 5
-0.076535834282452253 0.064652957849703041 2.0087391198176112 130 165 176 368.271423 301.086761 5
0.30005225677673075 0.53061210092471744 1.742277540884297 180 255 148 450.883667 403.10791 6
-0.22727228312346259 0.2970305136834005 2.831429214671588 170 180 190 352.346191 325.472321 6
-0.52656961783816847 -0.88653096429456113 3.1426801741849415 0 255 0 322.486328 176.173096 6
27.653763487849851 -28.780753879022335 71.498676933808909 255 201 214 531.505249 134.369308 6
0.54811986374762123 -0.49955332206279668 3.021450344038362 142 163 255 453.869659 220.96286 6
0.50909727809335403 -0.49438345484011581 3.3440899888380837 57 111 143 444.911713 229.920807 6
0.97556472202544353 -0.52362592270786923 2.4975805694499273 234 241 255 537.477234 206.032928 6
0.93003118571829013 -0.27792604620636124 2.1172187693292983 242 246 255 549.421143 238.878769 6
0.78604719038171056 -0.28677251516786062 2.4857458234736214 240 243 246 504.631378 241.864746 6
0.38774256973946919 0.36099183145719627 3.6161170912960952 169 255 138 418.037842 325.472321 6
-0.27908871626528864 -0.38663525171787239 0.64917814058277079 38 71 93 220.96286 56.7337074 6
1.1439299145595778 0.53444837445198234 1.7323136795789331 255 189 194 639.000671 406.093903 6
1.0472152114200335 0.24413996922126568 2.0086228330491007 113 133 255 585.252991 337.41626 6
-0.32418226207212486 0.30867087254280906 0.60041973365201473 89 255 38 182.742264 487.312714 7
0.98057928508855619 -0.31097919796329532 2.2554040154375725 255 240 242 551.809998 236.48999 7
-0.25665015782785883 -0.044278243259908479 0.72764903967441752 255 117 136 243.656357 265.155426 7
-0.27119259541303231 -0.14452810687119005 0.66364137777931465 83 104 255 225.740448 200.658173 7
-0.2257151399820998 -0.26042835294234684 0.65833348706268646 255 110 129 247.239532 132.577713 7
-0.54023870413544461 -1.3955232912651883 3.1134964516666033 98 255 38 322.486359 118.244995 7
0.9465560199065387 -0.47931350956375918 2.3129764656292506 235 242 255 537.477234 207.824539 7
0.79694303823780199 -0.60794996199708218 2.8610285820931942 242 255 229 498.062256 207.824539 7
-0.61013875954383501 -1.0440931060745542 3.7455193798722028 0 255 0 326.069519 175.575897 7
0.1290530268538419 0.070768658823916364 4.9101767862731691 178 255 150 394.149963 293.820892 7
1.1823716873993861 0.40112529997380797 1.5176065983260463 130 148 178 680.804504 390.566803 7
-0.25366647096629835 0.64754386031420741 3.3825735568100121 255 165 177 347.568604 358.318176 7
-0.27468298393862423 -0.034815407971923062 0.60742539766019421 255 13 16 211.407715 268.738617 7
-0.082164274849316543 0.068735217156574047 2.0408927920327651 156 168 255 369.067719 304.570435 7
-0.22954406143085038 0.31042155463982374 0.70539953155877377 93 255 39 254.405899 462.230438 7
1.0776168964831676 0.57100460049659618 1.6884774238438682 255 47 51 627.056763 415.649078 7
0.61316571453774249 0.68252459089341133 3.8158630748048568 34 104 134 444.314514 358.318176 7
0.76802964100569748 -0.29156022287731453 2.4247689383827202 243 246 255 505.228607 240.073166 7
