ply
format ascii 1.0
comment Written with hapPLY (https://github.com/nmwsharp/happly)
element vertex 68
property double x
property double y
property double z
property uchar red
property uchar green
property uchar blue
property float ix
property float iy
property uchar octave
end_header
0.7234276246164637 0.52021176380185175 0.7841272064325393 255 105 123 739 544 0
0.58724996904460225 0.47397405257483172 1.0291704277047611 255 227 229 603.600037 465.600006 1
-0.31893468369613487 0.6777770703253907 1.4132044044156489 255 60 86 295.200012 472.800018 1
0.52641826398240044 -0.044934681472653892 1.2424236667599935 250 251 255 545.76001 273.600006 2
0.47384987494130693 0.67224835591423115 1.2751374398277315 255 151 162 527.040039 488.160034 2
-0.096389375797804711 0.71124326058988885 1.1119045293121292 255 213 213 351.360016 531.360046 2
0.31158555219258099 0.22774474101664577 1.6954117073201971 245 249 252 456.480011 336.960022 2
0.47124222270338789 0.089811294976275491 1.1209483901356094 155 169 188 544.320007 319.680023 2
0.50114654433073702 0.58231547166483999 1.9464534847394352 198 202 208 480.960022 403.200012 2
0.57880150932813379 0.59895476465564812 0.95308777498846631 228 255 227 618.624084 530.496033 3
0.59567481759957674 0.53892851016033205 0.94249705184213095 226 227 227 628.992065 509.76004 3
0.41168285541845107 0.70741334475019357 1.4981133672092435 164 255 169 490.752045 466.560059 3
-0.17558187318460972 -0.20720514801793399 0.35264032322971417 214 210 255 193.536011 62.2080078 3
-0.34094462364111644 0.69190995999367289 2.5546743791818889 255 138 172 335.232025 392.256042 3
0.52346347020887807 0.73778657371112288 1.4185810586579812 255 152 164 527.040039 487.296051 3
0.57187408677638496 0.021512083271218785 0.97785604843371665 246 248 251 608.256042 297.216034 3
0.56950521866668113 0.15243688077185347 0.92593032199100822 224 230 255 617.932861 352.512054 4
0.6264988982034374 0.87858206071263822 2.6415896187057903 171 179 193 476.92807 416.793671 4
0.55767470012873388 0.46506701982848853 0.86251399487848701 228 255 227 630.374512 493.516876 4
0.36205102249835242 0.69820449002379092 1.4100661569940733 151 145 255 481.075256 476.92807 4
0.50490538871831969 -0.12559451386889364 1.2082312865847724 246 248 255 545.356873 248.832031 4
0.61745813830076801 -0.34427880881903405 0.9892208446896209 237 255 223 626.227295 157.593628 4
-0.32415999062203449 0.70221641942166357 1.4542440586065446 74 96 117 296.524841 474.854462 4
-0.09515695085874043 0.69471097676674987 1.086831583879289 207 255 209 350.438446 532.915283 4
-0.33507785300005422 0.462942724807057 1.4080445533221733 197 255 138 294.451233 414.720062 4
-0.26324131384171823 0.68144330199982406 2.669437961489491 108 166 193 348.364838 385.689667 4
0.085080075468937366 0.65187099066024246 1.4716222199400502 87 91 94 404.352051 458.265656 4
0.50087663807392735 0.72514274165725112 1.3918080769125662 183 255 144 526.694458 489.369659 4
0.11424839734775594 0.15404637161385359 2.56618033968343 252 255 245 398.131256 311.040039 4
-0.20590888686184261 0.7004048356146555 1.968716940137079 164 182 255 345.876526 423.014465 5
-0.80865187567824837 0.30645830532646157 1.1532033330692313 228 232 231 116.951057 385.689667 5
0.61667171225167716 0.11327599124528653 0.78478300844798543 241 241 246 684.288086 343.388214 5
0.45130356083151768 0.63677157611963509 1.2102823623642252 255 162 172 527.523926 485.222473 5
0.61255212066715736 -0.36659835030274479 1.1487413730032214 234 240 255 589.731934 164.229141 5
0.079731085266767199 0.63455109773539675 1.4322640116839152 91 95 255 405.596222 455.36261 5
-0.20003775335640617 0.74540279327200309 1.3772233113831911 255 137 151 323.481659 497.664062 5
-0.32068503825188577 0.68690639547073928 1.4276268224103772 60 87 113 296.110107 472.780853 5
0.75384785731540815 -0.45208800315840136 0.86399152182184125 227 255 200 714.147949 84.60289 5
-0.4653308182055973 0.49667855637230396 2.2700977371552007 163 191 255 301.584442 370.262085 6
-0.089692583220636557 0.5068710009466102 3.0281480089747124 170 182 255 373.248077 349.360199 6
0.40421678269940231 0.68020180980379763 1.4826138954475088 135 255 137 486.715485 459.841614 6
0.55672330826415894 -0.35326939194699492 1.3531735752706959 255 233 236 543.449219 185.131042 6
0.60832684121047542 0.11144897145682719 0.76802846906768263 255 241 241 683.790466 343.388214 6
0.3519874893262438 0.27504925024978899 2.0482540960302851 249 252 255 453.869659 337.41626 6
-0.31894399884374414 0.70695502019898626 1.4477186600339671 255 70 94 295.612457 474.771545 6
-0.21561340695583509 0.74296882132362185 2.14607421499315 255 141 158 343.388214 424.009796 6
-0.23722660413483121 0.70599138250743465 1.866369285151519 180 255 148 334.430267 435.953735 6
0.086766239644562537 0.66563972642148173 1.5071032772481496 79 255 60 406.093903 453.869659 6
0.50846634416660108 0.57886037733283224 0.98423600354153251 219 221 255 585.252991 516.575317 6
-0.35424243871446226 0.73710869857230321 2.7393890212222907 173 196 255 337.41626 391.163971 6
16.939287261480075 -25.595798119112828 47.258595887256142 178 200 223 516.575317 80.621582 6
-0.39223990723464075 0.51580914078581586 1.6400228635416036 195 255 151 290.237701 415.649078 7
0.54896913208800058 0.31508737001018505 0.83000194064903798 202 255 194 630.639954 433.564972 7
-0.38152768713694574 0.40488840111105873 1.8266284662991294 94 163 189 300.987244 369.067719 7
-0.00061896760602664358 0.64335699434091964 1.1996906915272056 107 255 64 386.983612 498.062256 7
0.55044572809853332 -0.048806552205647336 0.93865385812330349 250 251 255 605.557678 268.738617 7
-0.31894399884374414 0.70695502019898626 1.4477186600339671 94 112 255 297.404083 476.563141 7
-0.22100201634856287 0.73356947049962429 2.0998235360142585 255 157 172 343.985443 426.398621 7
-0.23314169079157443 0.57808970134695059 1.6726486309447308 169 189 255 333.235901 419.232239 7
-0.19799370323327858 0.62882653426957802 1.1631674923181325 170 255 134 322.486359 498.062256 7
0.16520522665778326 0.20161664015621028 3.1408429003914797 248 252 255 397.733154 311.736786 7
0.52956224310364997 -0.1572459135840063 0.99198188329819104 247 247 249 584.058594 229.323624 7
0.324060779573772 0.25706737348692243 1.7068715684623932 247 255 242 458.647247 347.568604 7
0.41877408587116749 0.74458397376352181 1.6093546168516273 255 141 141 483.729523 462.230438 7
0.086416936488188378 0.760857693133282 1.8086284595840274 82 89 93 404.899536 455.064056 7
-0.27452380252908659 0.67064127943508822 2.6603246831180236 136 176 198 340.402252 383.400421 7
-0.13472495278292929 0.61957837244491287 2.9829822382155857 171 195 255 365.484528 365.484528 7
0.49884336653588957 0.63593319774939872 1.4226901720316896 195 255 193 526.727722 458.647247 7
