ply
format ascii 1.0
comment Written with hapPLY (https://github.com/nmwsharp/happly)
element vertex 168
property double x
property double y
property double z
property uchar red
property uchar green
property uchar blue
property float ix
property float iy
property uchar octave
end_header
0.31903185193299211 0.40407409919244969 1.2991745607374243 129 255 77 478 406 0
0.6881561520046322 0.010315451184526422 1.012186001891177 240 255 233 646 292 0
0.61820619983800662 0.36944901603806668 1.0308129728302233 205 202 255 613 424 0
-0.47808702351047849 0.4001917762910201 0.63590837403121625 145 255 159 94 529 0
0.69369030332411574 -0.97557371865780462 4.362110946043309 229 255 219 446 202 0
0.7380769679031991 0.010166763705742734 1.0004310716047158 255 232 235 667 292 0
0.75565856977723322 -0.013841891025899351 1.0303853971508046 255 236 237 667 283 0
0.76838539646294501 -0.076335228137837732 0.99315575565797864 148 157 255 681 259 0
0.78468279643729189 0.32257882331966659 1.0364967684243134 191 190 186 676 406 0
0.70227894238618283 -0.20639740589755964 3.9720626021314054 105 127 255 453 268 0
0.56457540730423528 0.26671006889057014 2.9696770151423562 112 134 255 457 322 0
0.58533103118181629 -0.16105197073894992 1.0344421348730553 148 160 255 601 229 0
-0.49489465141640332 -0.56473678458598808 1.4742044294309069 138 165 197 256 142 0
0.6554568416477391 -0.16477557101791862 1.9776073851849405 45 60 68 512 256 0
-0.32702914156050378 0.29315388397070385 1.218221524624955 161 171 255 281 382 0
0.25426121932959012 0.48908158054828932 1.5794200431463925 68 86 115 448 406 0
0.5914981553558547 0.42416324429940422 1.8088084419736099 255 112 118 511 379 0
0.15927648797047642 -0.96896788143389512 3.6135702359391666 255 37 69 399.600006 184.800003 1
0.54827317521041108 -0.076316864098067094 1.0022632262107996 255 26 41 591.600037 259.200012 1
-0.32224746689257555 0.29109451942695524 1.2092947658735869 149 162 169 280.800018 381.600006 1
0.62083965316392109 -0.85450375915528154 3.8239714177771771 230 255 220 446.400024 201.600006 1
0.71471091001448261 -0.015654824158591735 0.96959908782576676 255 236 237 667.200012 283.200012 1
0.77283913094454337 -0.078846269084305309 1.0000705643717871 148 157 255 681.600037 259.200012 1
-2.3803928490734831 -1.1619011093398304 3.4727469220144203 193 201 212 120.000008 159.600006 1
0.6154210784920453 -0.13023627496461587 1.0490520966006176 231 235 255 609.600037 241.200012 1
0.70918701262645434 -0.20787550765401885 4.029044345226831 106 129 255 453.600006 267.600006 1
0.71555224796806105 0.5241613829002143 1.0929611101836676 76 98 255 633.600037 471.600006 1
0.73445833611853628 0.086848089260264744 0.99930539011410402 255 170 168 667.200012 321.600006 1
-0.24423009998229639 0.43939013897962925 0.67438724750317092 255 156 160 243.600006 538.800049 1
-0.49639701564608818 -0.56624343342424477 1.4740887064279293 255 137 165 255.600006 141.600006 1
-2.536462527114574 -1.6718814481869917 3.5325404800666842 173 182 198 108.000008 105.600006 1
-2.0852899010426724 -1.1367684638024427 3.0527624788485843 179 190 206 120.000008 145.200012 1
0.58004191105305869 -0.38039095961433306 3.6296334975118492 61 105 153 444.000031 247.200012 1
0.57721534858287682 -0.15482126138878793 1.6344736691360089 21 30 255 517.200012 252.000015 1
-0.46507266832595406 0.45908758058306631 0.92033944704328929 66 84 255 189.600006 480.000031 1
-0.44226458202855334 0.42312483478426555 0.72144241938713405 255 22 27 147.600006 512.400024 1
-0.37241287605633899 0.05623655519280446 1.3524117328786254 175 173 255 277.200012 303.600006 1
0.56905943660084901 0.41537710065557798 1.1199944263824697 255 196 198 579.600037 433.200012 1
0.12696123359144684 0.44984189832942217 0.92171347091275446 39 46 69 436.800018 475.200012 1
0.67686701232579671 0.009011429257861062 0.9898494694016069 234 236 240 648 291.600006 1
1.142520462769951 0.15240004788575237 4.5185814258885522 54 255 22 478.800018 301.200012 1
0.36320212841546118 0.46925852732756612 1.6865291917018892 80 108 255 469.200012 393.600006 1
0.31989773985124792 0.40188524702151951 1.2965193523363452 93 121 255 477.600006 405.600006 1
0.020993312303282136 0.20519435297738384 0.82811506813061286 128 143 255 393.120026 384.480011 2
-0.1575063080791328 0.37559505022257877 0.66144464367020483 157 148 255 293.76001 505.440033 2
-0.24954472177192477 0.28227421279184628 1.010173948610958 163 171 173 288 394.560028 2
0.12980993630860921 0.43724452889869392 0.89304164462879054 35 53 255 437.76001 476.640015 2
-0.44156438527360531 -0.56251582401782607 4.1109874284472019 255 35 85 339.840027 234.720016 2
0.64922412344270686 -0.20197373490313275 3.5997968690595137 108 130 255 453.600006 266.400024 2
0.57489550006922263 -0.11058922088889916 1.0698621687453989 255 29 41 591.840027 249.12001 2
0.58229061929861015 -0.15725222753978918 1.1213865767253512 72 81 255 581.76001 234.720016 2
0.27989801028876293 0.22629050250540803 2.5666673362790964 255 92 127 427.680023 322.559998 2
0.79078802849738383 0.36169281042674362 2.6499575302003286 104 116 136 496.800018 339.840027 2
-0.49744078012088799 -0.56820091385177141 1.4743445133217628 197 255 138 254.880005 141.12001 2
0.71878854792348257 -0.064361154366571444 0.92503971664994744 148 157 255 681.120056 259.200012 2
0.63437531568675043 -0.10379079572337793 1.5158933316802188 94 106 255 545.76001 264.960022 2
0.65000248013362172 -0.16449774253178501 1.9613548206986684 45 60 68 512.640015 256.320007 2
-0.46518469516046279 0.45859187119165551 0.91960696341741033 86 255 56 190.080002 479.52002 2
-0.45161698913973081 0.42941461199625175 0.73421499302185533 20 25 42 148.320007 512.640015 2
0.57618856953066966 0.43783070009787284 0.88851723340169897 98 255 56 630.720032 478.080017 2
0.15140119409726296 0.45258310694206799 0.69784769703275173 100 255 50 466.560028 538.559998 2
0.053247960734424754 0.29101563667110314 0.4858213501113402 89 255 62 426.240021 518.400024 2
0.6036828421053313 0.35644411567990963 1.1589099203762445 160 255 164 586.080017 406.080017 2
0.78295386070695827 0.35405888369903743 1.0350801885092658 255 153 154 675.360046 417.600006 2
0.72955700885499719 0.25156008967854226 0.98941315443320277 62 80 109 668.160034 385.920013 2
0.25385704174017443 0.5009418264487463 1.6058855956246296 86 101 127 444.960022 406.080017 2
-0.1622822947215295 0.43226972674706177 0.66082232519459627 155 158 159 292.032013 539.136047 3
-2.180366937046228 -0.19980838960603836 3.2989001796237991 215 219 255 129.600006 264.384033 3
0.36799234151308213 0.39855872752959803 0.89630011301793799 68 77 99 540.864075 461.376038 3
0.59713648459882951 0.40316090994180542 2.9599079396292449 95 117 255 461.376038 338.688019 3
0.22831847355334117 0.35001878233598738 2.0259761602041779 93 126 130 428.544037 350.784027 3
-0.39644164127468795 -0.27086095180688702 1.3790885387719882 200 211 255 273.024017 212.544022 3
-0.57288498713733593 -0.43818878662689725 1.6104610943015689 255 200 208 243.648026 183.168015 3
-0.52376356460794016 -0.55103454174836852 1.4701608256159278 255 143 168 247.104019 145.152008 3
0.66879919144291811 -0.016818051438353361 0.983247616634781 240 255 236 646.272034 281.664032 3
0.62409837589332517 -0.13305678142509669 1.0854803349167845 222 225 230 608.256042 240.192017 3
0.73479526795780703 -0.076680318812205217 0.94491377402844923 255 203 206 679.104065 257.472015 3
0.58849626094722329 -0.14276996876903281 1.7537765337676867 255 52 64 511.488037 255.744019 3
-0.43714269762417712 0.44583109467848236 1.0718680250376487 160 166 168 228.096024 447.552032 3
-0.098375575314443353 0.36481957712169499 0.67179064489862461 148 255 135 326.592041 497.664062 3
-0.51667572741181944 0.030204125909593968 0.76616964523131348 196 255 207 126.144012 302.400024 3
-0.44343152296925969 0.26069791564145539 0.8399143139405264 255 64 77 179.712021 407.808044 3
0.78979954721162271 0.35813709723514175 1.0425428159566068 255 190 190 675.648071 418.176025 3
0.12980993630860921 0.43724452889869392 0.89304164462879054 46 69 255 437.184052 475.200043 3
0.15105506621525933 0.46246326549097649 0.71174362096998545 95 255 46 466.560059 537.408081 3
-0.23760784387556877 0.28574136517344156 1.0740941098397208 174 255 154 298.59845 387.763245 4
0.57196934520864684 -0.10938792353763362 1.0593693866603846 22 33 42 588.902466 248.832031 4
-2.0171790804931224 -0.21370336483919611 3.0750200454612084 183 255 214 130.636826 263.347229 4
-0.12474838951566863 0.27760005809747057 0.69705373156657569 71 73 255 317.260834 439.603271 4
0.29443881245730757 0.30730283289947602 2.5522934733482407 109 118 255 429.23526 337.996857 4
0.54340192968369949 0.25965795350178461 2.934118990038971 119 255 101 454.118469 321.408051 4
-2.5987299807170698 -1.0859521843160034 3.7495325030205149 225 255 219 118.195213 176.256027 4
-0.27115452075501484 -0.45866704716492385 1.3616402225476818 205 255 158 306.892853 159.667221 4
-0.5026546989636369 0.029167789592354276 0.74871802173768287 196 255 207 126.489616 302.745636 4
-0.29953537161456623 -0.75942348044201902 4.2420810812090179 99 255 19 358.732849 219.801636 4
0.59790084214159334 0.3556777160400395 1.1416555691715171 96 255 97 586.828857 408.499268 4
-0.45338898240024972 0.44867981770600091 0.90160594003948225 57 68 86 192.844833 479.001678 4
-0.5844611423517726 -0.44674897186914819 1.6323747623088367 219 255 200 242.611237 184.55043 4
0.76871982963841012 -0.062686071060699941 1.0178116587653234 236 239 255 673.920105 263.347229 4
-0.30649460923006921 0.44153891046467125 0.73439732926191725 165 255 166 226.02243 516.326477 4
0.28574495715351916 -0.95412520037099113 3.779969013075303 153 255 98 414.720062 192.844833 4
0.4571931091140729 0.35259345027619093 1.4960407294010525 255 184 186 499.737671 377.395264 4
0.65626729735608857 0.010467475968549749 0.96283214740041334 233 236 240 644.889709 292.377655 4
-0.31536390490407229 0.28508817776812734 1.193343947407735 171 255 146 282.009644 381.54245 4
0.051066956562324906 0.29273711681295211 0.48932943396771111 70 86 255 425.088074 518.400085 4
0.48890954271983544 0.28833928622524829 1.7008575365605936 97 110 131 492.687439 350.85318 5
0.62250440381385086 0.077723347866293452 1.9712223264853694 255 45 55 507.61734 301.086761 5
-0.13180052008087761 0.28752278283191618 0.72500092129989613 70 76 88 316.016693 440.432709 5
0.30577215527789381 0.30244759398947818 2.5191378981820738 41 58 74 432.967743 333.434937 5
0.80242725972800311 0.05997319442099544 1.0587845708138977 255 169 101 679.311462 313.528351 5
0.80917642208275464 -0.066475207116147558 1.077128873242952 233 233 236 676.82312 263.761963 5
-0.44325339974414446 0.4225752323704639 0.72083740973187971 22 255 15 146.810898 510.105682 5
0.74577724544633328 0.45177112973422112 1.0038966245414136 255 141 146 671.846497 457.850952 5
0.56785110757894086 0.41309436982931669 1.1290796741629661 213 211 255 577.290344 430.479431 5
-0.40153100704182798 -0.27069569815602962 1.3786241991645019 255 174 185 271.226929 211.507233 5
-0.56280228062293958 -0.44373424911810577 1.5927386503647414 255 200 208 243.855392 184.135712 5
-0.29020636376639575 -0.72260966490613598 4.0850700119940857 255 24 68 355.829803 218.972198 5
-0.011261311687394804 -0.96766110426159135 3.7030390572195677 255 31 64 383.201324 186.624023 5
-0.21359530257757031 -0.36485897319270855 1.4082945700809737 48 85 115 320.993317 189.11235 5
-0.51186761305064765 -0.54630395495875028 1.4488450151112473 141 167 198 248.832031 144.322586 5
-0.20739308174951909 0.4110248939463057 0.65711285559687294 255 161 164 263.761963 522.547302 5
-0.32368852549251037 0.46043281858499796 0.77530350087608235 165 255 164 226.437149 515.082336 5
0.052082984171175767 0.28195068375648347 0.49376225723002121 255 65 79 427.991089 505.129028 5
0.1303577365850184 0.44690206884817912 0.91399009802433118 46 69 255 437.944397 475.269196 5
0.47458415153165179 -0.89253987705580484 3.6138769590797395 213 223 255 437.944397 196.577301 5
0.62976797989360678 -1.0079765971062844 3.8411626050647714 219 255 196 450.385986 189.11235 5
-0.24579013193294796 0.27790267088063225 0.99585365087791833 173 255 152 286.15683 393.154602 5
-0.060300453040025459 0.20134945355481065 2.3956591837022168 53 75 255 373.248047 325.969971 5
-0.38288426439607992 -0.59524566013790814 4.1217901113994913 110 255 31 350.85318 236.390427 5
-2.6842714279636706 -1.7904459286427663 3.7370306367349286 198 255 173 106.997772 102.021133 5
0.4195814695974513 0.30362217168509137 1.3062282718535581 191 193 192 504.631378 376.23407 6
0.3347465043188308 0.34133373798654787 2.7371347004984941 75 93 255 429.981781 334.430267 6
0.33852233042769342 0.34429640503318071 1.5328779795873004 88 121 255 465.813599 376.23407 6
0.1947832806520236 0.35124628445103506 1.6320898050300108 128 255 105 426.995789 370.262085 6
0.18897955575961606 0.33821378031691007 1.7630295370771176 167 255 117 426.995789 358.318146 6
-0.5059750337714366 0.46265105084130093 0.7983789889095495 22 255 15 146.313248 510.603363 6
-0.44821924970535321 0.44187064629198658 0.8978749108228391 94 255 59 194.088989 477.757538 6
-0.43710449945530472 -0.29152713737923885 1.4568134484085027 255 169 181 271.724609 212.004898 6
-0.60682142302354647 -0.49012398627275966 1.573788613039665 189 199 214 232.906799 170.201126 6
-0.0084939564855630589 -0.94959247862579432 3.6227010386874476 98 255 27 382.206024 188.117035 6
0.78455381658961809 0.36098281512169283 1.0267193438720397 196 193 255 677.818481 421.023834 6
-0.16510923681892242 0.3813690660793857 0.67040648484753851 173 161 156 292.626495 504.631378 6
-0.19900173349146782 0.32741611299827 0.63983348846968358 84 255 51 262.766632 477.757538 6
0.58254491097505201 0.42787459891283419 1.1094321225971289 255 199 201 591.224915 438.939728 6
0.57143971528118143 -0.14309373856831567 1.6693660616211174 50 59 255 513.589355 256.794678 6
0.051358018633182706 0.29097278188185483 0.48534652803764389 58 66 81 424.009796 516.575317 6
0.13213605596689143 0.44137898576694851 0.90984814796541325 50 255 21 438.939728 477.757538 6
-0.54139245796890012 -0.5595244654320306 1.5065177129220317 255 145 169 247.836716 146.313248 6
-0.4707249883745025 -0.54905905849005943 1.4058749158644002 161 195 255 253.808685 137.355286 6
-0.2805693269438882 0.2690146006026255 1.1220945792012915 255 149 163 283.668549 379.220032 6
-0.32550991206358915 0.20343859664741371 1.001277444630815 169 177 255 253.808685 370.262085 6
0.32937146555519409 0.42064240679937415 1.5499309672156485 85 115 255 465.813599 391.163971 6
0.7874569592381796 0.059439676685315329 1.0342688287022295 104 105 255 677.818481 313.528381 6
-0.43723572857305204 0.43842305341102444 0.88204209758142904 70 89 255 193.491806 476.563141 7
0.33478839419003276 0.41978499881397585 1.3628328835154013 96 108 133 480.146332 404.899536 7
0.6451526473831215 -0.1522469739586278 1.9271596601818783 42 57 65 512.394958 257.989075 7
0.54419578465362706 0.39776775208544535 1.0974280719721741 204 200 197 576.892212 426.398621 7
-0.42667268704483408 -0.28395373631637577 1.4234419692324325 154 167 176 268.738617 211.407715 7
0.57705209751900677 -0.11701799257580001 0.98024412292281993 211 218 255 605.557678 243.656357 7
-0.59676742898495372 -0.47738589375187901 1.5455103023032815 184 196 212 232.906799 168.409531 7
-0.48011212518399604 -0.60730162806415211 1.4772596595416354 154 191 255 257.989075 128.994537 7
0.13474051634093484 -0.90909544662308805 3.5333684555940503 94 255 32 394.149963 186.325439 7
-0.34048012499205937 0.2973354012134039 1.0576011920389776 170 167 255 261.572266 394.149963 7
0.80492744862596455 0.63203331203462065 2.7248081783430398 195 194 255 501.645416 376.23407 7
-0.0043764596976083592 0.12525556365416293 2.4639099656147563 255 21 65 383.400421 300.987244 7
0.21841508939309315 0.42328226451235129 1.5480066170892173 121 139 255 437.148163 394.149963 7
0.18351818450366977 0.31162418923228058 1.542823821112288 167 255 117 426.398621 358.318176 7
0.73920203965688469 0.44603807017496544 1.002262263939566 116 255 75 666.471802 462.230438 7
