ply
format ascii 1.0
comment Written with hapPLY (https://github.com/nmwsharp/happly)
element vertex 145
property double x
property double y
property double z
property uchar red
property uchar green
property uchar blue
property float ix
property float iy
property uchar octave
end_header
-1.5371960602067434 0.087483384158959843 3.2004787147147979 255 245 247 199 298 0
-0.13910425283020311 0.68493968206403189 2.299718870784992 131 151 255 361 403 0
0.83585024985614575 -0.42818465465791955 1.3395591019709432 237 255 212 622 166 0
-0.29090980380041254 0.069452669145559809 1.0370713917013612 125 152 255 277 313 0
0.69451909115436172 0.62545030861821593 1.3794303887055195 104 255 86 578.400024 462.000031 1
-0.51953445963997735 0.39344046120469101 1.4464624806453381 255 223 223 247.200012 391.200012 1
-0.19339936267627689 -0.040402450167678183 1.0639952115282334 179 197 255 313.200012 273.600006 1
-0.57348364828422138 0.67202769241278393 1.6144861202992935 255 183 187 247.200012 447.600006 1
-0.35130194005191173 0.078671983739804441 1.2638867968546261 125 152 255 277.200012 313.200012 1
-1.7752914107534701 0.060395908949665178 2.289757409994329 197 196 255 85.2000046 297.600006 1
0.46643788828537414 -0.35427182892201159 1.9515149555176858 246 255 241 474.000031 218.400009 1
0.72405630274173749 0.65170283987896749 1.4464907214641149 104 255 86 578.880005 462.240021 2
-0.70807601408256593 0.52223280550351481 1.8747644501797298 224 223 255 237.600006 394.560028 2
-0.15401106034552114 0.69298384659054879 2.9246092303146627 148 255 119 362.880005 380.160004 2
-0.3134363745612605 -0.02545419409312788 1.1133878956959453 248 248 250 276.480011 279.360016 2
-0.38723309895861169 0.67850756940572865 1.002361689967378 226 226 255 237.600006 545.76001 2
-1.8013268690536681 -0.47466997179878567 2.17609931318629 104 114 255 69.1200027 204.480011 2
0.9072234914963051 -0.46672483602248116 1.476703707899949 236 255 213 622.080017 165.600006 2
0.61490159560907731 -0.51014007632787717 1.869199557254797 227 233 240 508.320007 182.880005 2
-0.96853569792912531 0.15168441413446976 2.1170542192748538 251 255 243 210.240005 315.360016 2
0.58192892595374568 0.66648654621415959 1.3517509616157906 255 90 104 551.52002 478.080017 2
0.53648416943635091 -0.40606630734849669 2.2378226650556128 243 246 255 473.76001 217.440002 2
-1.7686370244950416 0.32303976178876237 2.6495354686315764 153 255 66 126.144012 335.232025 3
-0.17365524755480699 0.72948731783956278 3.0234797656095029 136 155 255 361.152039 378.432037 3
-0.25649550827768985 -0.45854014819111677 1.3703761014589055 184 204 255 309.312042 157.248016 3
-0.22446325994581695 -0.4604053538819487 1.1565658022525511 175 198 255 309.312042 134.784012 3
-0.41095047001112173 0.081654095672678895 1.3492699627412534 255 146 162 267.840027 311.040039 3
-1.1443854089066137 0.51380747222757117 2.6501426735548197 180 179 255 217.728027 362.880035 3
0.70395004522643867 0.11237579762016137 1.6649817894001959 191 255 154 546.048035 314.496033 3
0.74466072688349572 -0.5756052405112948 3.1765837286330605 243 246 255 473.472046 217.728027 3
-1.6781590879641892 0.67160727397950915 2.2949661990092878 204 201 255 101.952011 399.16803 3
0.78957651579217369 0.62284556718225592 1.4868208775112262 75 88 106 584.064026 447.552032 3
-1.9664246292595253 -0.54392034681817292 2.4171548451530418 103 112 255 69.1200104 203.904022 3
-0.57494693322705581 -1.3436753730450881 2.1173544506318294 213 255 141 278.208038 41.4720039 3
-0.52901787113338061 0.60883868282404807 1.470486928633461 255 185 190 247.104019 445.824036 3
-1.0995146460993701 0.63913764946290597 1.2509410913168324 92 255 70 46.6560059 482.112061 3
-0.23258274993597583 0.24603460182272241 1.206497377010221 159 174 255 309.312042 366.336029 3
0.78649114035689993 0.6224914497675671 1.2658334988597355 22 38 255 625.536072 478.656036 3
0.75004855003784687 0.64905383020253571 1.4618643270129148 106 255 85 578.880066 461.376038 3
0.77527047645338421 0.52511292757231209 1.3404069869607076 139 152 167 608.256042 438.912048 3
0.720469936624903 0.65125980522862803 1.002030771977517 0 22 255 661.824036 537.408081 3
0.29145830801040251 0.64947993125542669 1.0625821875905892 146 163 255 489.024048 521.856079 3
0.35063605029481471 0.66271593668531992 1.1812846288790979 255 120 134 499.392059 502.848053 3
0.58729179823824751 0.049607358440970806 1.9252170545925935 248 251 255 501.120056 298.944031 3
0.70410767306578337 0.45985180864228947 1.7175352574787732 144 160 181 540.864075 390.528046 3
0.48549184205432261 -0.023616017186495308 1.8839970806163668 250 251 255 481.075256 282.009644 4
0.61045181153957095 -0.15936699512471714 2.0367775761334439 247 249 255 501.811279 257.126434 4
0.63945408527877534 -0.45032220890737562 2.126125528371765 238 244 255 501.811279 207.360031 4
-1.7690595233562436 -0.37951615115556958 2.0390764325115356 108 134 255 53.9136086 215.654434 4
0.91931215356502505 0.61679908672350292 1.1983988945536135 208 255 200 678.067322 487.296082 4
-0.66389279323703843 0.49556868228353468 1.7561533898408781 225 255 226 238.464035 396.057648 4
-1.8202536531953304 0.062613469988148873 2.3512350625610301 255 201 197 87.0912094 298.59845 4
-1.1100276703330541 0.52948596693522099 1.3035150981992558 120 255 13 58.0608063 439.603271 4
0.51877291982410956 0.094092647253732342 1.7889925316672439 255 245 248 491.443268 306.892853 4
0.59310676279017205 0.01565340260084841 1.9115853038352002 255 248 249 503.884857 292.377655 4
-1.1429248901496702 0.66359224858536925 1.3136404165083482 255 58 77 47.6928062 481.075256 4
-0.31339181483413459 -0.19960973267063564 1.1021066236433867 240 245 255 273.71524 221.875229 4
-0.23540412153753065 -0.3138301398781248 1.2542904228568403 149 199 215 308.966431 192.844833 4
-0.33715118966849511 -0.030104896529874581 1.1859011891166062 248 250 255 273.71524 279.936035 4
-0.57494693322705581 -1.3436753730450881 2.1173544506318294 177 213 255 277.862427 41.4720078 4
-0.44774480521997129 -1.2919555518035257 2.0517385840574844 157 185 215 300.672028 45.6192055 4
-0.20932203742552247 -0.52862057560323883 1.1680891733587675 255 58 159 315.187256 109.900818 4
-0.30830727619946519 0.14239142932574567 1.0525792258800823 255 153 167 271.641632 340.070435 4
-0.40236727158659091 0.088852080048596793 1.4322698970968304 131 160 255 273.71524 313.113647 4
-0.25101935315069301 0.081627637382329477 1.3518599679857717 144 198 212 308.966431 313.113647 4
0.73862303843418631 0.65367211069031905 1.4676683143926104 104 255 86 578.534485 462.412872 4
0.94301707935626078 0.44716989415057634 1.1714476783844141 132 150 179 696.729675 431.308868 4
0.36780975091984791 0.62825756366097185 1.2523155051830823 255 121 135 495.590485 479.001678 4
0.25146112295058831 0.61984229348507858 1.2031450810032966 143 155 174 468.633667 485.222473 4
0.28516933970300529 0.63327813147992629 1.0296180027343436 146 164 255 489.369659 522.547302 4
1.0062887405117733 0.1956100698136447 1.3396023035013389 132 148 255 669.772888 346.29126 4
0.83316377427847521 0.44143536999690564 1.4529429708846138 255 128 142 603.417664 404.352051 4
-1.1144315450232356 0.62149882473174134 1.6507380303077914 171 255 136 126.904335 437.944397 5
0.86056662322714383 0.50768714423197747 1.2233997676778197 255 115 135 651.939941 442.921021 5
0.46875901952148991 0.49586694735094894 2.1524337960723283 53 66 255 465.315918 373.248047 5
-1.3754271059528755 0.18945521212676331 3.0097749721001676 248 251 255 209.018906 313.528351 5
0.52376407946364911 -0.3988277833274334 2.1493154945308159 255 241 243 475.269196 218.972198 5
-0.69962276507632515 0.51110445386235692 1.8666685278589181 226 255 227 238.878754 393.154602 5
-0.85713659616239957 0.57180172475757918 2.0547504827274699 192 255 199 226.437149 390.66629 5
0.17542160154127973 0.1260208648935392 4.1819319809433999 255 57 111 395.642944 298.59845 5
-1.6559706144884894 0.05556285231868896 2.1211987952812663 255 201 198 87.0912094 296.110107 5
0.67463004363542023 0.48644318353453131 1.2584328603480985 125 140 255 589.731934 435.456055 5
0.81554648724172396 0.53015372904888469 1.4545471013292248 255 132 145 599.685181 425.502777 5
-1.7324960746227105 0.71095738225612293 2.9063660622328253 188 255 195 154.275864 380.713013 5
-0.44213462158282546 -0.042927308606311776 1.6027845358845827 248 250 255 273.71524 278.691895 5
-0.22459575328434989 -0.3938346817004601 1.1110897760551985 143 194 213 308.551727 154.275864 5
19.103967139004286 -31.398085675325021 59.07211124633109 222 255 177 510.105682 82.1145706 5
0.88588903581698974 -0.4556795191235079 1.4323486796873395 211 225 236 624.56842 166.717468 5
0.82393392771191931 -0.50287644355909389 1.6083320165013664 240 255 230 582.266968 169.20578 5
-0.3937962450612944 0.081221576007834972 1.3995905822904158 131 160 255 273.71524 313.528351 5
0.80380714939349329 0.63784751753798186 1.2993902653607909 54 57 71 624.56842 475.269196 5
-0.21685307597457903 0.65453321158030608 1.1811636797388854 141 162 255 313.528351 502.640717 5
0.9214008402027003 0.60525460327574188 1.1939301817646113 226 225 255 681.799805 480.245819 5
0.57650662705361766 0.64145778524819441 2.0363354921051826 138 155 255 497.664062 408.084534 5
-0.27935819912694626 0.61663067845964714 2.2563113537659172 104 255 170 338.41156 393.154602 5
-0.4157127739018418 0.34916529524717876 1.3408073206523632 123 255 117 266.250275 388.177979 5
0.36641085308542931 0.21670242228299941 3.1756252751969463 189 255 130 430.479431 313.528351 5
0.34598553860739711 0.39277973296632535 2.0359868929890812 255 139 125 447.897675 364.290131 6
-1.4572680638672373 0.65260299786486908 2.1481852786931617 187 255 208 122.425369 403.10791 6
0.729861321411446 0.63566845108478542 1.4166599809620326 255 79 89 579.281006 462.827606 6
0.78053927025145597 0.61073542855011587 1.4802685092152092 106 255 73 582.266968 450.883667 6
0.59851206343641117 -0.37727717856502241 1.975360111091387 240 245 255 501.645416 214.990891 6
0.52376407946364911 -0.3988277833274334 2.1493154945308159 246 255 241 474.771545 217.976868 6
0.57295226118411247 -0.42868625391182302 1.8731277543718274 243 255 233 498.659424 206.032928 6
-0.19235321989459742 -0.25666024850107705 0.95354159928883941 255 184 214 307.556396 191.103012 6
0.83498916256978828 -0.50533922122898456 1.6263361088434136 240 255 230 582.266968 167.215134 6
0.80230879534005606 0.63231556738106875 1.3004747978075368 65 71 255 621.084778 477.757538 6
-0.70246199125855968 0.70745295688435617 5.9979900029107007 169 255 128 334.430267 331.444275 6
0.3623791705888173 0.68936498793987755 1.2562483512739915 255 127 142 495.673431 504.631378 6
0.51404499039099094 0.66423268637831145 1.3641114921724045 125 137 156 528.519287 468.799591 6
0.21004180804502592 0.48719267631796859 0.97528555835044362 122 137 161 468.799591 477.757538 6
0.63851686621274406 -0.53157650177549187 1.9403574875006502 255 224 233 507.617371 188.117035 6
0.094158570289285759 0.043418204932443583 1.2666013233807654 255 54 126 415.051849 307.556396 6
0.77910783501866532 0.524565098103561 1.3056169374295896 144 157 171 612.126831 441.92572 6
0.92819916560857529 0.65952976803162844 1.8071783405646658 87 102 255 585.252991 432.967773 6
-0.32411355461371594 0.6652642384033941 2.5634510681636042 156 85 255 337.41626 394.149963 6
16.430410354894267 -26.698716891734438 47.799809633072329 255 165 193 519.56134 74.6496124 6
1.0106887759179808 -0.44612162896480767 1.3325029353260973 238 255 224 674.83252 158.257187 6
-1.3352224450544807 0.18120523329889326 2.9287885708577956 255 243 247 207.824539 311.736786 7
-0.97444621877272342 0.065266880444049713 1.983348473503507 244 247 250 200.658173 300.987244 7
-0.39506387199709225 0.72604399740762482 4.7715700378130084 255 156 176 347.568604 351.151794 7
0.19310134869198614 0.13628607719157243 3.8924450755236428 112 143 255 401.316345 300.987244 7
0.69273189953286329 0.60125590693035558 1.5699947692908225 255 100 114 555.393127 433.564972 7
0.87736108399698653 -0.44276770239059293 1.4009273186263327 255 213 225 623.473572 164.826355 7
0.83498916256978828 -0.50533922122898456 1.6263361088434136 229 233 239 580.475403 168.409531 7
0.85533790385626118 0.67015290755030454 1.4009654420516142 158 164 164 616.307251 476.563141 7
0.7643984317306145 0.6639396923297094 1.5002454168042512 72 83 100 580.475403 462.230438 7
0.51605418739673459 0.55441124790546625 1.7396549741875038 140 255 115 490.895874 408.482697 7
0.72596974757910737 0.48615759311668572 1.8425631538808886 162 182 255 537.477234 390.566803 7
-0.45316241462862239 -0.62740737221492981 1.4233516234184691 208 228 255 257.989075 121.828178 7
0.7963054412708559 0.41326507148786962 1.5606581762931464 165 172 175 576.892212 390.566803 7
0.96990804214364723 0.60400298433576893 1.2161196231505134 255 224 224 695.137207 480.146332 7
0.55364342274992739 0.64697893177526022 1.3124713774137167 131 147 255 541.060425 480.146332 7
-0.12128226447284085 0.56449599136450501 1.5900710256477639 164 255 121 354.734985 419.232239 7
0.55384391185831627 -0.42277085053037133 2.2833722097789986 240 243 246 480.146332 214.990891 7
0.63289972281557483 -0.51571096276056627 1.9279826820399721 227 233 240 508.811798 182.742264 7
0.58885739481487143 -0.43605118918386543 1.9277688295583104 243 255 232 498.062256 200.658173 7
-0.97007570972782986 0.46352611423366707 2.3567163434474283 155 163 255 225.740448 361.901337 7
0.4662552334540695 0.43186650748929234 4.1591964010318065 170 255 87 426.398621 333.235901 7
0.25537496397228132 0.15683353383476883 2.2436411310712643 174 255 94 426.398621 315.319977 7
-1.7887277939631656 0.58598774366568862 2.7638297465637551 74 112 140 136.160904 369.067719 7
0.89965261028014254 0.47069288189158337 1.5573935664625465 140 157 255 605.557678 408.482697 7
1.0031644342645027 -0.43741190780068306 1.330901366629595 229 237 255 673.638123 157.659988 7
1.0475415303233409 -0.23808896501684951 1.3025354119446542 255 121 158 691.554077 218.574081 7
-1.6868577067988153 -0.44714067341270758 2.0118178691352515 111 111 120 68.080452 200.658173 7
