ply
format ascii 1.0
comment Written with hapPLY (https://github.com/nmwsharp/happly)
element vertex 149
property double x
property double y
property double z
property uchar red
property uchar green
property uchar blue
property float ix
property float iy
property uchar octave
end_header
0.22414323698112781 0.5068221556983884 1.8809894631499828 85 104 255 429 390 0
-0.66479849649152811 -1.4558091711306187 4.1875574670324411 213 230 255 325 154 0
-1.0353422637101164 -0.58699375059235304 1.6166938667867181 74 97 128 140.400009 147.600006 1
-1.1869383102431201 -0.34000600868543851 1.5246715547284775 255 241 241 87.6000061 201.600006 1
-1.2722510795877051 -1.0604382323378698 1.6483206891311282 146 172 205 88.8000031 43.2000008 1
0.018197760958317266 -0.0032079607337397453 5.9612997534584711 139 255 98 386.400024 285.600006 1
-1.4082892449159208 0.1560772799870499 1.7955174394380995 167 162 255 81.6000061 319.200012 1
-0.4192675402440198 -0.3398121244762945 1.8731899759433035 228 235 242 296.640015 216.000015 2
1.3304896528621781 -0.093133099064884484 2.3529305751134517 255 122 153 603.360046 273.600006 2
-1.2687899684360366 -0.033712105971693385 1.651119482018323 245 247 255 89.2800064 280.800018 2
-1.1343217244215378 -0.69968358427789945 1.6810627710585724 255 73 96 123.840004 126.720001 2
1.0773637826696276 0.42389818863029011 2.3165721360588627 255 116 129 563.040039 360 2
-0.96728824259185631 0.36115190649099904 1.5496569365480237 4 255 24 146.880005 377.280029 2
-1.0863926249672842 0.4200772361981252 2.0784519664564831 51 19 255 181.440002 365.76001 2
-0.39007868852812777 -0.60737690747455875 1.5601693941452917 185 207 227 288 141.12001 2
-1.3008384379149152 -1.0046878370716894 1.7259412320900398 176 208 255 93.6000061 63.3600006 2
-1.0056890969244323 -0.89512804652295341 1.5184401856001073 42 54 79 132.480011 63.3600006 2
2.2780842425527132 -0.062663542573511921 2.8865637674721007 77 145 172 684 279.360016 2
0.52215550660689591 0.51230748386249059 0.92822324127195488 127 142 166 600.480042 499.680023 2
0.2655832246590788 0.31399203090108574 4.8362981895369606 134 150 166 404.640015 315.360016 2
0.64317779840060085 -0.63021141314244167 3.6220942984612083 127 153 255 449.280029 220.320007 2
1.9170260152289753 0.18765472955273618 2.4526175170760025 157 255 50 686.016052 319.680023 3
0.96451877350829052 -0.43911248162188699 2.7574090818178432 244 255 235 514.944031 226.368027 3
1.0701434041754279 0.4258671381445972 2.3044439288784018 145 150 255 561.600037 359.424042 3
-1.1052985868796621 0.33155858108134972 1.8349038653571608 113 255 77 150.336014 355.968048 3
-1.104746357127373 0.29106368675225114 1.6243862016141368 93 108 120 120.960014 355.968048 3
-1.1311491184848221 -0.088235624352339226 2.4611519680203671 178 181 255 209.088013 274.752014 3
-1.0455340101258281 0.19952244672294128 2.4886286167978184 180 184 255 221.184021 319.680023 3
-0.23831723419079642 -0.010508813130346017 3.2352545572980294 255 98 119 355.968048 286.848022 3
-1.0388255507188151 -0.4291585966146938 1.6163535826110667 135 255 90 138.240021 186.624023 3
-1.9366692585258654 -0.63419828037589943 3.9998891587187391 255 220 220 195.264023 229.82402 3
-0.59865760909440979 -1.3945207970204121 3.9305865219188076 255 193 212 323.136017 152.064011 3
-1.2343146274146015 -1.0372250833595487 1.6133360228364606 204 255 147 86.4000092 41.4720039 3
-1.2547994275455912 -0.82465736094052777 1.6318200820823661 213 218 226 88.128006 95.0400085 3
0.0049948533026942243 -0.028847025138946214 5.8181349125328925 119 140 255 385.344025 285.120026 3
-1.1530654082687835 0.030146601417378238 1.7293460462240295 93 112 136 124.416016 293.76004 3
0.54147731954260325 0.53651420131021688 0.97865922078583534 255 121 136 599.616028 499.392059 3
-0.20691582775226292 0.52816659688883427 1.6745978370962504 255 233 234 335.923248 406.425659 4
-0.23989714058445144 0.4863219805219427 1.7395757170133965 255 111 123 331.776062 398.131256 4
-0.35482090868123395 0.42931312696356061 1.5809100837571441 83 90 105 300.672028 389.836853 4
1.2835285562861038 0.10067825046379959 2.2125593971506845 255 109 136 607.56488 302.745636 4
1.3560185591056673 -0.095543998486658316 2.445498943762229 157 183 255 601.344055 273.71524 4
1.1712607578996499 0.50620247852479672 2.1050921497340767 255 88 94 599.270508 383.616058 4
1.0835073247173224 0.43025941843947912 2.3327148174399746 142 152 169 564.019287 358.732849 4
-0.578701076746996 -0.54678989988820847 1.743532775303398 223 224 225 252.979233 165.888031 4
-0.27465662848206729 -0.16634090805346213 1.2310597697730623 244 255 234 294.451233 238.464035 4
-1.3030536588213399 -0.38516408748555564 1.7304119980409558 255 241 241 91.2384109 203.21283 4
-1.2290573251516621 -0.51492949321926496 1.6122615641260638 238 240 255 93.3120117 165.888031 4
-1.2512297045286687 -0.1833309757690571 1.6573038931338355 243 245 255 93.3120117 244.68483 4
-1.0789124863960278 -0.18648788203825895 1.6570095585763163 50 55 82 132.710419 244.68483 4
-0.87039115852068694 -1.7374751299796256 3.7901112630954801 220 255 167 294.451233 111.974419 4
-0.61914786309309244 -1.9502549443368196 4.5027639363936656 255 171 197 331.776062 120.268814 4
-1.0702675712724101 -0.9159263905300552 1.6306579701781025 67 78 102 132.710419 74.6496124 4
1.0531829602443075 -0.56601173779694713 2.5451595364495514 255 220 230 547.430481 201.139221 4
0.73112529343246913 -0.49196947834680571 2.9590645312493864 236 239 244 476.92807 223.948837 4
0.0021128843770041872 -0.0076774393760699056 6.4909787205899363 119 140 255 385.689667 286.15683 4
1.0311821398524039 -0.48331005650176218 3.0294420532255817 244 255 235 514.252869 226.02243 4
-1.1448967295593548 0.02387824504926328 1.7057075861567794 92 112 136 124.416016 294.451233 4
0.38533536138106639 0.40665617956001593 0.8185325302539197 139 160 255 561.945679 476.92807 4
1.2536510937484915 0.53734456570633915 2.0720803765398159 255 17 25 615.859314 387.763245 4
-1.0999565776449565 0.31804375131576779 1.5939544739865643 86 84 255 121.927696 363.294769 5
-0.93475872180749286 0.43224506501235349 1.1679125837888491 231 230 255 77.1379318 427.991089 5
0.29788690018565966 0.51708909139703185 0.85147888490219259 224 223 255 517.570618 520.05896 5
-1.252092752930269 -0.97373577535703237 1.6586578609812661 208 255 148 94.5561752 62.2080078 5
-0.51834429787853464 -0.76244791980891713 2.0291387047057752 226 255 183 286.15683 139.345947 5
-0.94925792751623295 -1.9059459167005732 4.2301608248403397 220 255 169 298.59845 114.462738 5
-1.0745425430795503 -0.9711288186117919 1.6541965053543204 89 255 49 134.369293 62.2080078 5
-0.44163040438586521 -0.68628023948596262 2.9250088183125431 236 241 255 325.969971 196.577301 5
1.0057324455113981 0.54826965851568699 1.2721209652042069 255 82 70 691.753052 452.874298 5
-0.6219793345615594 -1.9851945663204642 4.5852639862173215 222 255 172 330.946594 121.927696 5
1.2155611521515957 -0.84123182562872278 3.092457365138495 255 227 232 539.965515 184.135712 5
-0.62091458027582958 -0.068992466726112256 1.7419946128392492 226 227 227 248.832031 268.738586 5
-0.40776372021716067 -0.23099168189036445 1.7663253270548704 235 239 244 296.110107 236.390427 5
-1.4591225732422615 -0.12971891730902663 3.2399089105488654 220 255 219 206.530594 268.738586 5
-1.0854043479983893 -0.18728532459176062 1.6518658334576442 255 56 61 131.880981 243.855392 5
-1.0804532966976188 0.21147023645613228 2.5466395843158418 180 185 255 221.46051 318.505005 5
0.56794803589108045 0.56406744345480386 1.0231721499549846 134 157 255 597.196899 497.664062 5
1.42328958998751 -0.43038945132012318 2.8587753605439463 255 133 163 579.778625 231.413788 5
0.22917323840208503 0.24941373758556701 3.9723959431068314 166 179 255 405.596222 311.040039 5
0.13704861887504993 0.52968158582384184 1.3832163946378673 255 207 218 423.014465 437.944397 5
-0.22226005439993601 0.51674717374511259 1.7627805068634181 212 255 173 338.41156 403.10791 5
-0.337695353372232 0.37086830986050612 1.7616263161164381 255 96 103 311.040039 370.759735 5
1.3682004566904973 0.50596167338794529 2.1315656630884225 181 181 180 624.56842 378.224701 5
1.1930941003179802 0.26276002136334253 2.1927557617047491 119 134 155 592.220215 333.434937 5
-0.97876376720081559 0.37721592066995391 1.5834466376368148 4 255 27 146.810898 375.736359 5
-0.27456746912539609 -0.0079998809308435281 3.5590746772149116 255 98 119 355.829803 286.15683 5
-1.1576152630340539 0.32384006574738355 1.7000863384085112 255 90 103 119.439384 364.290131 6
-1.4018201919634312 0.35368333854986445 1.8861987309017874 221 209 191 92.5655212 361.304138 6
-0.28505027827051421 -0.00067011659572191462 3.7510624374932711 255 98 119 355.332153 286.65451 6
-1.0359484428846937 -0.81557248667817583 1.6045563574056483 99 124 255 137.355286 95.551506 6
0.72895212736497994 -0.49870885289075551 2.9274311836746669 244 255 236 474.771545 223.948837 6
-0.79529671340319652 0.43818409539384284 1.1943349880834555 163 183 255 125.411354 426.995789 6
0.00075330754908842223 -0.012407922484424572 6.0627669627742957 119 140 255 385.192017 286.65451 6
-0.72675224666532579 -1.1018838344917052 4.7725093393537295 236 241 255 325.472321 197.074982 6
-1.0347187009425518 -0.58281293950768598 1.580565573670079 118 255 66 134.369308 149.299225 6
-1.0989213315724333 -0.75753267811756009 1.6796089190292416 122 255 71 134.369308 113.467415 6
0.80938392552131355 0.54945862582962191 1.1144796903227463 255 79 92 659.902588 477.757538 6
0.6555177401739003 -0.67252758982697125 3.881878402028037 255 70 120 447.897675 220.96286 6
1.0034419201954408 0.54970403242253596 1.2614579758692197 74 96 255 689.762451 453.869659 6
-1.2810413809983632 0.19834159435626553 1.5784752941388103 75 81 255 77.6355972 337.41626 6
-0.00033596567849913939 0.54990683410057772 1.4511391507426921 255 213 220 379.220032 435.953735 6
-1.293136858819973 -0.42084741244850254 2.6863811748334623 223 224 255 197.074982 229.920807 6
-0.64402432422843647 -1.4215138373427665 4.0177901139245442 255 193 212 319.500336 152.285217 6
-0.61472300622995757 -1.9712152197209276 4.5393627666282823 255 172 198 331.444275 122.425369 6
-0.38126868800101343 0.22669817258905911 1.7721188218737827 66 57 59 304.570435 343.388214 6
0.40486384194069691 0.43424258821303957 0.89009123497032938 128 141 162 564.351074 477.757538 6
-1.031700404955612 0.21069997103143701 2.402375948377049 169 172 178 220.96286 319.500336 6
-0.53910869512161463 -0.10056267120792473 1.7363528096940093 136 255 106 262.766632 265.752625 6
-0.3937443927999098 -0.22492200251148431 1.7161993085427514 255 235 239 295.612457 235.892776 6
1.3617415851459951 -0.074828615815078325 2.4600897391934566 255 121 151 603.168884 277.696564 6
-1.0621340657509988 0.4059095405154618 1.3802589582081191 183 255 166 86.5935516 397.135956 6
1.1733957586345551 0.47273275000291626 2.1731186416798085 56 255 46 594.210938 370.262085 6
0.25283471421574433 0.27781492599445118 4.3246811423447227 255 121 140 403.10791 310.542389 6
1.2628030164308524 0.15618568474867267 1.9993536432445076 113 131 156 624.070801 319.500336 6
-1.2282989765916308 -0.0073490759189760446 2.0339635523309587 130 255 85 146.313248 289.640503 6
-0.44892420307396907 0.4959975236844536 1.7655475400372866 230 255 223 286.65451 397.135956 6
-0.34729568549215895 0.43225476267673002 1.6237897500166159 166 182 255 301.584442 391.163971 6
-0.97602356428458892 0.415429035496095 1.4823677677329905 28 13 255 137.355286 397.135956 6
-0.67683226430761145 -1.449768346581942 4.0877790924500239 255 191 211 315.319977 150.493622 7
-0.57336762359885896 -1.8424156026533327 4.2467454946056558 198 222 255 329.65271 121.828178 7
-0.017002222500247299 0.008261941248471627 6.0440516696866382 255 98 119 383.400421 286.654541 7
0.34498684021704662 -0.51788515683361269 4.2799485879669348 255 160 172 415.649078 243.656357 7
0.83331651559566844 -0.31018752503265234 2.5130367419022335 239 241 245 512.394958 236.48999 7
-1.2970219937861462 -0.86288522445096305 1.7161452630192247 218 227 255 89.5795441 93.1627197 7
-1.2709516200988782 -0.99144235369496703 1.7019654897882406 182 210 255 93.1627197 71.6636353 7
1.1993562428820523 -0.69644325587172329 2.6071154256244764 236 255 218 558.976318 182.742264 7
0.94729669619322898 -0.49602443198195623 3.047036803428453 239 244 255 501.645416 225.740448 7
1.0302807366214852 -0.703135167441716 2.5292046677412205 231 238 255 541.060425 182.742264 7
-0.3757870833412098 -0.3095281144516312 1.6927443146665229 235 242 255 293.820892 218.574081 7
-0.37588505045334664 -0.44021661767203724 1.6398427488506013 233 239 255 293.820892 186.325439 7
-0.56159315968262957 -0.45477674338492613 1.7185828585976948 230 255 224 254.405899 186.325439 7
-0.0086035827371402362 0.60604242191968938 1.6380155901677043 255 212 220 379.817261 437.148163 7
-0.94685719766283016 0.16978933556279119 2.6105174889626994 255 110 116 243.656357 315.319977 7
-1.3601126147130982 -0.16615079557015466 2.9994648072228758 255 219 220 207.824539 268.738617 7
-1.289270519128086 -0.39543863412080782 2.665235374031484 224 224 255 197.074982 232.906799 7
0.24065084362427469 0.23565104083110455 4.6691000826877147 139 154 169 404.899536 308.153625 7
0.52889609668363136 0.52670070585427886 0.96835337973656932 255 131 145 591.224976 498.062256 7
-0.63711021294200565 -0.07920524651479699 1.7592822711597265 255 225 226 247.239532 268.738617 7
-0.94052212242197397 0.41422503699177182 1.4233470233263272 19 23 9 136.160904 397.733154 7
1.1750396422298754 0.25371062414716339 2.1683320176696013 255 120 134 591.224976 333.235901 7
-0.35038824988853801 0.43306005507075762 1.6236099998300872 118 127 142 300.987244 390.566803 7
1.0646021722012207 0.52631567397511581 2.0595338959570322 71 76 82 580.475403 386.983612 7
-1.0565907784926623 0.11090049391126433 2.3220093189531026 255 160 164 211.407715 311.736786 7
-0.20914596488594062 0.50880699158752052 1.6958364399695913 131 144 161 336.819061 401.316345 7
-0.33370675060893973 0.35951914769287185 1.767809298663884 255 107 101 311.736786 369.067719 7
-0.98701280784649104 0.40643673543213943 1.778608986839743 255 7 18 171.992722 379.817261 7
-1.017637033033497 0.28984476570667372 1.6620317427406337 118 255 82 150.493622 354.734985 7
-0.25132863124801119 0.52685547730272997 1.0307886269225341 136 255 85 290.237701 487.312714 7
-1.1076037834969212 -0.2306916787233092 1.6842283902673834 72 80 108 128.994537 240.073166 7
