ply
format ascii 1.0
comment Written with hapPLY (https://github.com/nmwsharp/happly)
element vertex 123
property double x
property double y
property double z
property uchar red
property uchar green
property uchar blue
property float ix
property float iy
property uchar octave
end_header
-2.2212180306140694 -1.1226859154536288 3.6102761872201148 210 217 226 148 169 0
-1.4522036503220543 -0.75657406746985267 6.1430743426709196 221 228 235 292 241 0
1.1657905374419786 -0.12312082459765933 1.4684359139564203 39 57 66 688 256 0
0.21374127862028924 -0.023632732924356664 1.1046660828997303 237 255 234 458 280 0
1.1884670388308962 0.093953527438045817 1.5034677989665037 102 114 136 688 313 0
-2.2692000843944027 -2.3634187741300772 3.7413856747383991 255 102 136 151 46 0
-2.1153050112912286 -2.5155126606599598 3.6580825491027298 255 98 131 163 25 0
0.47338429113213876 0.29076666018132058 0.52932534788737307 255 209 213 727 499 0
1.1888467734301305 -0.41756763803600677 3.3651523476372827 62 76 98 520 241 0
1.289339429962957 0.1736433464749137 1.3549076095091925 214 214 213 748 337 0
-2.3979640450936914 -0.11133247580896793 3.9409156994374497 255 238 239 151 277 0
-1.4663411545941756 -0.21755551828562991 3.6401847800827154 178 180 255 229 265 0
-0.51411905083126519 0.32573732017996493 0.66942215237053859 189 190 191 88 475 0
1.2006560481822142 0.33559922126614949 1.5142858186302173 87 101 121 688 373 0
-2.2997545868374702 0.1656445577536646 3.6298557423787687 227 255 223 142 304 0
-2.0801796822412943 -0.27483840007991678 3.5945893162886779 255 238 239 163 259 0
-2.0791383719685066 -1.9488044979542365 3.4701531123768836 192 255 132 154 73 0
-2.0510153048110507 -1.5799566665517748 3.6232480628022805 212 255 186 166 121 0
-2.1874793816916625 -2.1552593975149104 3.6425001320350185 153 189 255 153.600006 60.0000038 1
-2.0538873564455749 -0.36427033406060627 3.6099301052525687 236 239 255 165.600006 249.600006 1
-1.9226362627095552 -2.092235605756616 6.563493181277317 255 201 211 271.200012 164.400009 1
-2.0836250595944001 -2.2776380687488111 6.7848573440640507 255 184 200 267.600006 159.600006 1
-0.51396178940685511 0.3250680750065747 0.66878021510160079 255 190 191 87.6000061 475.200012 1
-0.50672695748326424 0.303347387106425 0.6608769798246098 255 64 94 87.6000061 463.200012 1
-1.4841007695729185 -0.18076216024581435 3.4940569375556425 255 54 74 219.600006 267.600006 1
-1.5116005405840314 -1.5102379216037685 5.7724265029676518 219 224 231 280.800018 187.200012 1
-1.5606006764017422 -0.6975976866479181 3.7478712672943182 106 255 59 222.000015 217.200012 1
-1.2853293214722745 -0.67674095308600601 3.8315034182422574 255 214 216 255.600006 222.000015 1
-1.9985105272591297 0.093591958840649747 4.4065553057841873 255 77 96 211.200012 295.200012 1
1.2716710493039014 -0.091924940178747749 1.3810080229132295 255 241 241 735.600037 261.600006 1
-1.4354188809092534 0.28210182073549311 4.1044449528494029 174 175 255 249.600006 313.200012 1
-0.92031553863368587 0.28470530834479668 1.2994467147627482 255 189 191 111.600006 373.200012 1
0.21299386909847018 -0.24563062743459063 1.1045928613292477 255 230 232 459.600006 201.600006 1
-2.1453403400101729 -0.93138210864991378 3.7463980796037175 226 232 255 165.600006 193.200012 1
-2.2190694758211955 -0.8817221368495296 3.5899256761076019 255 225 228 147.600006 193.200012 1
-2.0817316880398131 -1.0809984917794153 3.6490176872731648 216 226 255 165.600006 175.200012 1
-2.2129954135391867 -0.9756367395078881 3.5961397813069973 222 225 231 148.800003 183.600006 1
-2.2113922546465794 -0.3668007703146865 3.5953297506792552 234 236 239 148.800003 249.600006 1
-2.0766665202854773 -2.3689924951542549 3.610863482838262 98 133 178 160.800003 37.2000008 1
-2.1880326231470861 -2.301794080350152 3.6505920900600035 136 180 255 153.600006 45.6000023 1
0.58152738991219999 0.28736955780423279 1.250700368038951 75 255 18 562.800049 375.600006 1
-2.3386444828411719 0.1614165283833601 3.6566896458486511 255 224 218 139.680008 302.400024 2
-0.50188808026705223 0.29800906579761022 0.77143349295915198 185 186 186 136.800003 436.320007 2
-2.0782066735795173 -1.5979835237275311 3.6487768912924432 195 212 255 165.600006 120.960007 2
0.22875430171835642 -0.24462786393859759 1.1017055191750871 230 236 255 465.120026 205.920013 2
0.21733091220891998 -0.24442037791835147 1.0986124995926851 255 230 232 459.360016 201.600006 2
1.8083126392652709 0.19024129404446016 4.6142440769565685 138 255 81 534.240051 300.960022 2
-0.5060153539164749 0.40287182376736785 0.61710455132744202 148 255 154 70.5600052 537.119995 2
0.13594889404422927 -0.53038348494887655 1.1822582557654358 209 255 171 430.560028 113.760002 2
-1.4816299392433954 -0.74486668806648715 3.6015423770543289 145 255 79 226.080002 208.800003 2
0.47207315899428853 0.29076820182170932 0.53223402454738966 255 209 213 727.200012 499.680023 2
-1.2745947136271321 -1.7107381224664004 5.3373649914924322 220 255 182 290.880005 165.600006 2
-1.8349344438483151 -2.0084942031424329 6.0309472136942643 221 255 195 266.400024 161.279999 2
-1.4215872169267847 0.068868571619045943 3.1804377650239237 114 255 81 210.240005 295.200012 2
-2.0556403100242155 0.3021298434755762 3.6036104106576849 165 176 255 165.600006 322.559998 2
-1.4819138291742644 -0.18367180329123953 3.4949517109522064 53 72 91 220.320007 267.839996 2
-2.2368730726755168 -2.1937567372570959 3.7170714804994618 188 255 129 154.080002 60.4800034 2
-2.3217371573253436 -1.5704821793479213 3.7625491758501877 199 206 218 148.320007 126.720001 2
-2.1568926757973297 -1.8024008788062034 3.5888493343493861 143 167 198 152.639999 95.0400009 2
1.2107230162219897 -0.79733433674140086 3.4372506679364432 255 207 218 519.840027 200.160004 2
1.1985380566554968 -0.90663879211424714 3.292392535198239 218 228 255 521.280029 181.440002 2
-0.52510942906039793 0.33122341042453507 0.68106521094249639 255 190 191 87.840004 475.200012 2
-1.5495592312483844 0.075856971321903138 3.422953709682421 101 119 255 209.088013 295.488037 3
-0.65679568650521825 0.095285475934247077 3.840195326660985 76 101 255 317.952026 297.216034 3
-2.1585023505597589 0.10702021119797434 4.0920096981854721 227 235 255 181.440018 300.672028 3
-2.6089874691813701 0.51830437555827591 5.7477871903906514 14 19 7 212.544022 321.40802 3
-2.0915924629716667 -1.0900428773365511 3.6586540982815441 205 214 224 164.160019 171.072021 3
-2.205479092234675 -1.1300264353266887 3.6100604029007028 225 255 207 150.336014 167.616013 3
1.1669980835599041 -0.76531928065138555 3.2893592239247065 204 217 230 520.128052 198.720016 3
0.3193570570004447 -0.49620975603956452 1.1383147260284623 208 255 164 490.752045 117.504013 3
0.12930214006307184 0.072803190810182716 0.4846518412965497 65 67 255 489.024048 345.600037 3
-1.0309065958980317 0.43643869652667644 1.8329311196401341 151 255 119 170.035217 379.468842 4
-1.3804495840592788 -0.8442732260021717 3.955413502612914 199 255 196 250.90564 209.433624 4
-1.9127912637584856 -2.0511332646642431 6.2303112785388581 207 222 255 265.420837 161.740829 4
-2.1593121633918071 -0.35355814625350179 3.5551472291049504 255 234 236 151.372818 250.90564 4
-2.2062809640644581 -1.852894571835034 3.6683203740870698 164 197 255 153.446426 93.3120117 4
-2.2254015281344728 -2.3720033028205258 3.6510969017012465 134 179 255 149.299225 39.398407 4
-2.0432721564306111 -1.3503820137681446 3.7396774433567668 218 255 189 174.182419 149.299225 4
-2.2991907796634603 -1.8326657614023742 3.7337706222944562 175 201 255 149.299225 99.532814 4
1.2168279150150489 -0.13022166828656517 1.551731684096576 68 255 37 686.361694 255.052841 4
0.20994163240065711 -0.28649808318406467 1.1154317882126263 229 255 208 458.265656 188.697632 4
1.2055530722001144 -0.77912657413142195 3.4209568896060305 206 217 230 520.473694 199.065628 4
0.21432171783290022 -0.029628331010813649 1.1334351227498121 239 255 236 458.265656 279.936035 4
0.12090677411456263 -0.50687060486838154 1.1537126456637903 255 157 180 423.014465 120.268814 4
1.1917407392692714 0.3317700898301319 1.5165948532698428 89 102 125 684.288086 369.100861 4
-2.1305849487810118 -1.1292453369932791 3.6971808144820368 203 213 224 164.229141 169.20578 5
15.207743424318979 -10.820201511041351 24.574575755710502 255 56 99 619.591797 116.951057 5
-2.2794840024640286 -1.8178523126374988 3.7101395997089539 175 201 255 149.299225 99.532814 5
0.31655256917555086 -0.50384781658027211 1.1328905709963157 168 186 209 492.687439 121.927696 5
1.1881293720436248 0.081713328668524127 1.5139194637284763 102 114 135 684.288086 308.551727 5
1.2133293584572789 -0.12644006428692015 1.5373124763194961 77 255 42 686.776428 253.80867 5
0.21785082912720199 -0.25008601247696016 1.1194234552444315 236 255 230 462.827576 201.553955 5
-1.58075075572504 -0.19934217313670533 3.6856800679161399 91 255 54 218.972198 266.250275 5
-0.44325765291926533 0.27100843150210641 0.6839124492348011 188 255 190 134.369293 437.944397 5
0.44312288958115403 0.29314259162088807 0.57922167821121429 211 255 209 674.334839 485.222473 5
0.20087068249359319 0.0225187423485049 0.84479144032089981 113 120 255 477.757507 298.59845 5
1.4543370614878657 -0.13415507980257993 3.7389868015958583 255 161 175 531.505249 268.738617 6
-2.1237496217673613 -1.1289737647303066 3.6769566962559739 213 224 255 161.243164 170.201126 6
1.1881293720436248 0.081713328668524127 1.5139194637284763 255 102 114 683.790466 310.542389 6
0.12887130194871932 0.097739368383033029 0.4688387445393728 78 255 69 486.715485 367.276093 6
1.179808951775394 -0.059596353121979903 1.5081760812649641 255 70 87 683.790466 271.724609 6
0.21936076653185155 -0.25239422191414906 1.1021264735978624 236 255 230 462.827606 200.060959 6
0.22027280320347509 -0.28435835511829566 1.1148406937272346 255 208 217 459.841614 188.117035 6
-1.0350619672867767 -0.32943823443841747 2.8839181807717349 217 217 255 241.864746 241.864746 6
-2.0186034060048352 -1.3150621531259212 3.7266030810566959 189 202 218 176.173096 152.285217 6
-2.2647039628214047 -1.9074617291180538 3.742449810498369 134 161 196 152.285217 89.5795364 6
-1.6752412164870325 -0.21947667453083536 3.800704318547762 66 88 110 212.004898 265.752625 6
-2.1279155134537779 -0.26559010441445285 3.9005259899076039 239 241 255 173.187103 259.78067 6
-2.1457977534236057 -0.35369384674207871 3.5671091580788481 234 236 239 152.285217 250.822708 6
1.1761058822737258 -0.76699200436523995 3.375444712404311 206 217 230 512.394958 197.074982 7
1.1719112546108748 0.073855602383620142 1.5067387831529933 102 115 136 680.804504 308.153625 7
1.290155317186102 -0.21134245897520659 3.5165935978635945 255 89 128 523.144531 257.989075 7
1.1596184151797113 0.31814161744161401 1.4740191864820693 92 105 127 680.804504 365.484528 7
0.73669370721388494 -0.93979039005771536 3.5218638788599574 230 255 210 458.647247 189.90863 7
-1.6888892357304508 -1.6750831665112986 6.2713848880222356 255 218 223 283.07135 182.742264 7
1.8795380474414805 0.16690614513729612 4.8835204651173543 136 157 255 537.477234 300.987244 7
0.20433822301320947 0.020313707529197922 0.85054655612089847 89 107 116 476.563141 300.987244 7
-2.2719448363882524 -0.29532007545585975 4.9827024443145866 255 64 87 211.407715 265.155426 7
-2.116905753263524 -0.48465076632603166 4.3666008989091551 100 117 255 197.074982 243.656357 7
-2.8414628001430433 0.17325155130937425 4.3358493356262207 234 237 242 136.160904 297.404083 7
-1.4592706631998924 0.21077266605611028 2.5291930854025373 154 164 255 157.659988 322.486359 7
-2.0921354192941912 -1.0971132168637572 3.6208777789609643 214 224 255 161.243179 171.992722 7
-2.3733142252347221 -2.2248060379055796 3.8480722461755477 190 255 128 146.910446 68.080452 7
