ply
format ascii 1.0
comment Written with hapPLY (https://github.com/nmwsharp/happly)
element vertex 147
property double x
property double y
property double z
property uchar red
property uchar green
property uchar blue
property float ix
property float iy
property uchar octave
end_header
-2.2157122296754457 -0.91181393845553482 3.6561806894262414 255 226 229 151 193 0
1.2886875478991371 0.33557128021556815 1.4459506974905072 255 39 59 727 376 0
-1.9673113770898847 -1.5743654943368548 3.5533319791087674 174 190 210 172 118 0
-2.3101225350105739 -0.10529281288761663 3.8734087757951965 241 243 255 157 277 0
-1.9929299085816927 -0.2691299470651482 3.5266966598728793 242 255 238 166 259 0
-1.99665672064907 -1.0753657905277956 3.5798833954715774 215 226 255 169 172 0
-0.42366729314420803 0.40349974679687833 0.83586019224171459 165 255 167 190 475 0
-1.3464401320768706 0.28526413363365016 4.037137519423533 172 175 177 256 316 0
-2.2725070496404491 -0.19081162913996697 3.7336697972896022 255 239 240 151 268 0
-2.1062844542519801 -2.2958681201426687 3.5796215556506747 137 182 255 157 40 0
-1.9372347531095988 -1.10929686297028 3.5148271498120951 201 212 224 172.800003 165.600006 1
-2.0037086434839186 -1.3777603824331526 3.6030886713362484 255 193 204 171.600006 141.600006 1
-2.5241091840954928 -1.9350971806916955 4.4391899268822028 185 197 214 168 121.200005 1
1.2758353406814067 0.093976671510541024 1.4347654849614699 131 255 96 726 315.600006 1
-2.0738091099715148 -1.7964670212893581 3.5186352466232123 167 200 255 157.200012 93.6000061 1
1.3096801971370202 -0.035573193869268709 1.4754435846188241 103 255 69 726 277.200012 1
-2.3395070144225247 0.17325692326660919 3.7263434549032253 224 218 225 144 303.600006 1
-1.8386001713425402 -0.69409258369805993 3.3296590555962426 255 226 229 171.600006 207.600006 1
-0.26020032715646013 0.45889440468100684 1.353058286009728 91 108 255 309.600006 418.800018 1
0.31348401577203167 -0.20355236757803402 1.0097475641752212 235 255 220 502.800018 211.200012 1
0.20380006061963118 -0.48059067283856316 1.102796411802887 190 211 255 453.600006 121.200005 1
-2.1334754776522873 -0.87562499833659768 3.5211565338961481 255 226 229 151.200012 193.200012 1
-2.1276548486444082 -0.96956527712794149 3.5272233515577454 255 223 226 151.200012 183.600006 1
-1.9929299085816927 -0.2691299470651482 3.5266966598728793 239 242 255 165.600006 259.200012 1
-2.1875816292237031 -2.3574113130194392 3.6703543499234113 137 182 255 157.200012 40.8000031 1
-2.2379481283241578 -1.5643680582736366 3.6927618601449925 206 211 221 152.400009 124.800003 1
1.3022177389476888 -0.13077583291724482 1.4794390220046618 102 129 255 721.200012 253.200012 1
0.30240783074308064 -0.37882875332119331 1.0356502352106862 255 202 210 495.600006 147.600006 1
-0.41164495931315703 0.44761990473001761 0.65993695195283231 4 4 255 145.200012 549.600037 1
-1.8228906754660255 -1.8355450240838005 3.4398139241848198 195 255 124 178.560013 82.0800018 2
-1.8390997611428173 -2.0915258262723824 6.4927297765477894 205 222 255 277.920013 164.160004 2
-1.7513926906623563 -2.00720263347658 5.9602764783538893 221 255 192 270.720001 161.279999 2
-0.41955106654728835 -0.81365054409969095 6.1939400290849251 147 172 255 357.120026 237.600006 2
0.31593145077309226 -0.28297572394359882 1.0339292089982246 222 231 255 501.120026 184.320007 2
0.30348021354344812 -0.27765346903325244 1.0269054661860448 255 217 222 495.360016 184.320007 2
-1.2062772595229276 -0.56309310874647867 3.4605181633395299 221 221 255 249.12001 226.080002 2
-1.3966388377060897 -0.1765236516021248 3.4260576054848175 88 255 46 226.080002 267.839996 2
-0.71232206906808182 0.30051910698317053 1.2444659750296312 199 187 255 165.600006 380.160004 2
0.29823468802946018 -0.20424108166445001 1.0202397828036445 255 218 225 495.360016 210.240005 2
0.29927336098671242 -0.24233224750482013 1.0357797936693161 255 213 222 495.360016 198.720001 2
-1.9099171913564659 0.097823932846599571 4.3391948461571435 102 121 255 213.12001 295.200012 2
-0.25799026921384605 0.45261567716264045 1.3074637821229758 100 111 255 309.600006 420.480011 2
-1.9668140556356004 0.30775468045828047 3.5365964356077777 255 130 140 171.360001 322.559998 2
-1.3956608045862304 -0.74079789787850858 3.5326726297376818 255 74 92 231.840012 204.480011 2
-0.73333533858384459 -0.091869340219897094 6.903669222035564 151 152 255 341.279999 280.800018 2
-2.1362723756532067 -1.1166131223608857 3.5411366226831449 224 255 204 154.080002 165.600006 2
-2.1243923628180381 -0.3607354112679117 3.5273508076862066 240 255 235 154.080002 250.560013 2
-2.1208250027042128 -2.0911521325945452 3.5349157897781298 191 255 133 154.080002 60.4800034 2
-1.9233108311851712 -2.0984793108850841 3.4399534992779293 111 144 186 168.480011 54.7200012 2
-1.9945411085459086 -1.5923575247305544 3.5788444823182388 255 175 191 171.360001 118.080002 2
1.3022177389476888 -0.13077583291724482 1.4794390220046618 102 129 255 721.440002 253.440002 2
0.215326907700089 -0.48478804968192002 1.0830455850813123 173 189 211 460.800018 116.640007 2
-0.41426325631757899 0.30376682018499618 0.7037604929883885 190 191 191 156.960007 453.600006 2
-0.46898984751451644 0.4384288918658823 1.299964302856875 255 203 205 247.680008 417.600006 2
0.21701526610467825 0.050942428984590477 0.40633800906412576 31 100 126 588.960022 334.080017 2
0.21724374716190431 0.076593185724159768 0.41158446560594086 35 92 115 588.960022 360 2
-0.45420260197691009 0.43158470083716505 1.1212685183904834 91 100 255 229.82402 437.184052 3
0.30361118602325365 -0.24112460171721378 1.0297994725499464 255 213 222 495.936035 198.720016 3
-1.3944594630173741 -0.1794406203109149 3.4269469705453011 52 73 94 224.640015 266.11203 3
-0.42148631449222873 0.30029279912807422 0.54330682259246121 161 255 156 86.4000092 501.120056 3
0.98355472102787056 0.29349778668814452 1.4732540949969839 255 87 109 639.360046 368.064026 3
-0.47846734021168569 0.31562464779150895 0.65964332853198215 255 77 107 107.136009 471.744049 3
-0.54264903039945378 0.29855396988181854 0.67398664006562625 185 187 185 76.0320053 456.192047 3
-0.31951637775205755 0.49610404837598987 2.4269679565825806 255 187 193 335.232025 366.336029 3
-0.42000645649024326 0.4557100317165228 2.6167375737879022 255 211 212 323.136017 350.784027 3
-2.5186732104137883 0.52212976081109908 5.6813373255824242 88 98 110 216.000015 326.592041 3
-2.2408285528122294 0.3589350345087845 3.7473771475951052 215 211 255 153.792007 321.40802 3
-1.7513926906623563 -2.00720263347658 5.9602764783538893 200 219 255 269.568024 158.976013 3
-0.16671157915970714 -0.6779720043778843 5.012196241298108 135 156 255 369.792023 235.008026 3
-2.0065380834549349 -1.0843981178310433 3.5895100225804923 215 226 255 169.344009 171.072021 3
-2.0738091099715148 -1.7964670212893581 3.5186352466232123 165 199 255 157.248016 91.5840073 3
-2.0899211788717853 -2.1459582543533058 3.5492881894691148 147 187 255 157.248016 57.0240059 3
-2.2161285760534892 -1.8265674236855045 3.6635698181653811 172 201 255 153.792007 96.7680054 3
1.3022177389476888 -0.13077583291724482 1.4794390220046618 65 99 126 720.57605 254.016022 3
-0.40544032794738571 0.38926914835753429 0.64630861507629811 56 58 255 141.696014 516.672058 3
-0.3891269273371134 0.4104129787551663 1.4334724856564662 123 255 105 278.208038 397.440033 3
-0.71898505400884871 0.30253245482880275 1.2501616003930092 199 187 255 165.888016 380.160034 3
0.21582127722683098 0.10224569693180287 0.40059111531137148 255 63 105 587.520081 385.344025 3
-1.1905334359206758 -1.7099055770850944 5.2669172788962966 255 182 201 295.488037 162.432022 3
-0.31071484610460187 0.4699281434977865 2.3353257180777716 199 181 255 333.84964 367.027252 4
-1.4932589766045887 -0.19513566455253697 3.6176926852906583 255 57 80 223.948837 267.494446 4
-0.42024117272941752 0.29882417010950851 3.2814220990322283 255 147 162 335.923248 325.555237 4
-1.3275112479934439 0.24586777799810369 4.024805717007963 160 164 255 257.126434 315.187256 4
-1.3266923143142475 0.35645569257208382 1.9269358946192452 126 255 163 118.195213 358.732849 4
-0.15675619024648824 0.38641878631607235 1.0758506334087725 255 146 146 323.481659 425.088074 4
-0.26411027047862712 0.45794617706514545 1.3640655221047757 255 127 128 311.040039 416.793671 4
-1.5833462549015715 0.26409859504780808 2.9035915295920738 126 138 158 172.108826 323.481659 4
-1.4208397048117125 -0.75163642904305528 3.5943660724002804 75 90 111 232.243225 207.360031 4
-1.1905334359206758 -1.7099055770850944 5.2669172788962966 182 202 221 296.524841 163.814423 4
-2.0313228004798072 -1.1180612381905208 3.6047464053902623 225 255 205 170.035217 170.035217 4
-2.1205535970393243 -1.1239961672717884 3.5409028798769353 213 224 255 153.446426 165.888031 4
-2.0722931723134521 -0.34757282361872122 3.4871667455910726 255 235 237 155.52002 250.90564 4
-2.1233016239168228 -1.8469484165860415 3.5980492395961949 165 199 255 157.593628 91.2384109 4
1.3022177389476888 -0.13077583291724482 1.4794390220046618 101 127 255 721.612915 255.052841 4
0.36171580375659285 -0.7785783556256165 4.1650666572791231 223 229 236 412.646454 217.728027 4
0.29611426465058299 -0.28320789891057907 1.046557022844772 255 217 222 495.590485 184.55043 4
16.784385741566567 -18.637212951082411 32.999109792358027 192 255 113 578.534485 70.5024109 4
0.30690360674091144 -0.63650916341713659 1.1846579993535051 170 200 255 485.222473 80.8704147 4
-0.40124903090252406 0.41283358840478557 0.87875638842551052 190 185 255 209.433624 466.560059 4
-0.39205425970854679 0.38540621040779982 0.82628229876431569 255 169 176 199.065628 468.633667 4
-0.39653232778484715 0.29301411095136659 0.67433089206256647 187 187 255 157.593628 454.118469 4
-0.41925607734457038 0.3946089531646565 0.66682979422283384 255 33 57 143.078415 516.326477 4
-0.38337758082598428 0.42437834961556004 0.82562570259252355 255 155 164 203.21283 485.222473 4
1.0209484794990766 0.41682957967795103 1.1666869759876182 255 77 90 719.539307 429.23526 4
1.2475856426840466 0.31828769639090354 1.4056745487413425 255 83 96 723.686523 373.248047 4
-1.8292820816653936 -2.0499367316655732 6.1596074722857859 202 220 255 269.568024 159.667221 4
-2.0700033383057872 0.11217319700640568 4.0247379041595845 244 255 234 186.624023 298.59845 5
1.303605196161846 -0.1303491441210449 1.4826718958974554 255 60 98 719.124573 253.80867 5
-2.045621176227348 -1.1235535285326348 3.6279927517484913 214 225 255 169.20578 169.20578 5
-0.4201971493304939 0.38910566185230155 0.6685465645199723 53 56 255 141.834259 515.082336 5
-0.36292201142838421 0.40207062861851445 0.78077069634433149 156 166 160 204.042267 482.734161 5
0.30412435908871616 -0.24682371715490814 1.0506014520237741 210 219 231 500.152405 196.577301 5
0.31195513265360975 -0.28319256118392139 1.0384385698320184 217 222 231 500.152405 181.647385 5
-1.587755867021817 -0.21518992390048042 3.7327256748456419 255 58 81 223.948837 266.250275 5
-1.2319629037325872 -0.43780564827160079 3.5656076408975732 217 218 218 248.832031 241.367081 5
0.99329137486610253 0.29659738609423597 1.486743496622063 106 134 255 641.986633 363.294769 5
-2.0722931723134521 -0.34757282361872122 3.4871667455910726 240 255 234 154.275864 248.832031 5
-0.34793166564349876 0.49947138934785212 2.500094316569446 181 119 255 333.434937 365.783081 5
15.274954665776502 -10.893908986653155 24.483105163531977 255 68 89 619.591797 116.951057 5
0.30562076561145657 -0.24910935740947243 1.0333002977634833 231 255 212 498.659424 197.074982 6
0.21393032415447111 0.10363799626334545 0.41606259007776436 50 97 120 588.238953 385.192017 6
0.40213960942984051 -0.50087403943619757 1.0636358373424164 204 255 149 522.547302 104.50946 6
-0.21475702584886802 0.40146738987212055 0.68690480266409693 255 81 80 259.78067 507.617371 6
-0.26553240673305489 0.46187409356979092 0.89419064521948677 255 21 33 271.724609 486.715485 6
-0.3780694517849934 0.35658721720046632 0.61267896638682251 255 26 45 143.327255 513.589355 6
-0.43594750419013462 0.41546411447810183 1.2537276615402704 255 210 211 247.836716 415.051849 6
-2.0299049530815232 -0.48003168116527295 4.298399475132249 99 114 135 200.060959 238.878769 6
-2.0587741812101381 -0.34776380061907713 3.4991227422386206 240 255 236 158.257187 250.822708 6
-1.5376600213134157 -0.35517725806923856 7.1424613971676143 125 255 127 298.59845 271.724609 6
-0.94245853267648627 0.44200063048430072 1.7656935261554696 108 255 99 182.145065 379.220032 6
-1.8914825386640799 0.058435337239226469 5.9400932671561231 108 115 131 268.738617 292.626495 6
-2.038793591829279 -1.1232693993438754 3.6077661905430545 204 214 225 168.409531 168.409531 7
0.21517189690043559 0.048333890635323999 0.41370531514090825 255 39 101 587.641785 333.235901 7
0.21682279295247053 0.10130579627067922 0.40382689826256291 255 55 100 587.641785 386.983612 7
-0.23986471496298134 0.43283643469170535 0.83883675298603433 35 48 62 272.321808 487.312714 7
-0.37702435036818693 0.38789731204563338 0.84071266780345111 255 156 162 211.407715 462.230438 7
-0.94826215995387919 -0.32548190573950619 2.8155008632602545 255 218 218 247.239532 243.656357 7
-1.604338620546983 -1.6745620203610081 6.2011659204352183 255 219 224 283.07135 182.742264 7
-0.47183544904721675 0.3117941397704222 0.65106753195121925 255 75 105 107.495445 472.97998 7
-0.27123928122684404 0.46808086206563065 1.4271753641460458 255 129 130 311.736786 415.649078 7
-0.41329637737851566 0.39015644294059704 1.0170106372349208 163 170 255 225.740448 433.564972 7
-2.1841697053805227 -0.29122944998620726 4.9148574668453033 255 73 94 211.407715 265.155426 7
-0.45020425246728979 0.30416130961714077 0.72322308507017308 255 197 197 143.327271 451.480896 7
0.14545887132516544 -0.073687825018721897 1.2586767879742427 241 244 255 433.564972 261.572266 7
-0.42434447111165974 0.4837074216931902 3.4112592018301644 211 210 208 336.819061 343.985443 7
-0.35631971311718535 0.35769784166862489 1.5208744916902071 158 79 255 293.820892 376.23407 7
-1.3711449867895995 0.21642946185764081 2.4617878076129589 174 176 177 164.826355 318.903168 7
