ply
format ascii 1.0
comment Written with hapPLY (https://github.com/nmwsharp/happly)
element vertex 160
property double x
property double y
property double z
property uchar red
property uchar green
property uchar blue
property float ix
property float iy
property uchar octave
end_header
-1.6582390576455572 -0.597047510445743 3.7749243903375294 139 255 81 214 226 0
1.1787487241799233 -0.11937392702982091 1.3881209094486515 255 239 239 711 255 0
0.06770802645713947 -0.2278118653258302 1.0835929961193171 231 255 214 406 207 0
-2.3520866469420558 -2.3183519368766561 3.7538032164285138 255 104 135 143 52 0
-2.4517131646339392 -1.1623204550234136 3.8395392772396262 255 216 220 139 172 0
-2.1776934801354741 -2.3355345612609 3.6447793975950047 131 175 255 153 43 0
-2.1601225734691725 -0.36829807100627976 3.6619327170629572 235 239 255 157 250 0
-2.1414686672571936 -0.658033064353724 3.6413163409913749 229 235 255 157 220 0
0.54808924017043281 0.40008298565209105 0.57867969636349925 63 80 112 748 553 0
1.5990190204253563 -0.18688583887875079 4.7613770656138898 99 255 50 514 271 0
1.1256022825040217 -0.1856913792821436 3.5121227113609987 99 126 255 509 268 0
-2.240989821359284 -2.3085107429412437 6.9409873346910693 199 217 255 261 160 0
0.16842243336509999 0.28473642064604004 0.83422897461369694 255 210 214 463 418 0
-2.8517759984007665 0.22534483693162616 4.3066761335557757 125 255 180 130 307 0
-2.3724893308230151 -0.073595185582286143 3.7324717582888431 255 237 238 139 280 0
0.31602052337708131 0.31176776523586963 0.46227672603581438 192 255 186 646 547 0
-0.0084707905874829015 -0.53289199994478897 1.269901880497156 204 255 146 382 127 0
-2.232872563820453 -1.6095687386213426 3.7749373394790182 206 217 255 157 124 0
1.2021532909865904 -0.12970380343757426 1.4023832026917653 239 239 242 712 253 0
0.90447458501516387 -0.95265254747625472 3.3974582910142517 255 102 127 487 181 0
0.091798468562559243 0.46020727200628875 1.2094115070070521 255 209 212 415.200012 434.400024 1
-0.0027525193340883769 0.10226949856014911 0.46687136312923516 219 217 255 381.600006 369.600006 1
-2.4086828932749258 -1.8826405266936748 3.8618294910024824 155 173 199 144 99.6000061 1
1.245278055655425 -0.12515612409261731 1.4699584596558977 242 255 239 710.400024 255.600006 1
-2.3414683358342616 -1.126872041865064 3.6919197945316897 255 215 220 139.200012 171.600006 1
-1.9967708063221243 -2.033014020531422 6.1925729421538644 182 198 217 260.400024 160.800003 1
0.29605802992800978 0.45355966205732101 0.84117390489607957 120 255 88 518.400024 496.800018 1
0.09276157110418215 -0.24317440663469331 1.1614060033438938 216 223 232 412.800018 207.600006 1
0.085775758631666088 -0.29118069429387061 1.1854378461771622 255 207 216 411.600006 193.200012 1
0.16204887442718652 0.42846421719110112 0.84983423923169354 255 208 211 459.600006 481.200012 1
1.1841561509739957 0.036574576767143686 1.4595185206212262 239 244 255 697.200012 297.600006 1
-2.2803673299836222 -2.2604370937121918 3.6746405441573819 178 255 102 142.800003 51.6000023 1
-2.2488999479721037 -2.5100394939008357 3.7372250288631585 129 173 255 153.600006 31.2000008 1
0.22602189812795448 0.28644866828093141 1.2736734547944668 255 202 206 451.200012 372 1
0.37492826902424242 0.38594202406190764 1.8134701617894053 255 152 160 463.200012 369.600006 1
1.1221424942230473 -0.10093903200025241 1.4632822467712931 164 169 173 676.800049 261.600006 1
0.16719390639658349 0.27553818884360387 0.8119694802216666 255 210 214 463.200012 417.600006 1
1.0689937504087832 -0.81632790642961039 3.5366789499753715 104 131 255 501.600006 199.200012 1
0.94750759165582521 -0.77669278772098416 3.2593286489452873 255 64 101 495.600006 195.600006 1
-1.1974512287494008 0.41938746078506128 1.8052235833069181 112 130 255 129.600006 379.200012 1
-2.1577239567544249 0.090672334177960986 4.5541251067287805 73 91 255 201.600006 296.400024 1
-2.2304310767326543 -0.29705801029072093 3.527196306456331 255 235 236 139.200012 255.600006 1
0.53812427795866991 0.23512596989592968 0.62697481756886231 117 118 118 712.800049 429.600006 1
-2.2388043223432912 -1.0923412435791704 3.7682343789399546 217 225 255 157.200012 177.600006 1
-2.3391934464179558 -0.37123876302395881 3.6795677006643337 232 234 238 140.400009 249.600006 1
-0.0057682724971568344 -0.53098619508325529 1.2584710927314449 173 204 255 381.600006 127.200005 1
-2.3157779034418677 -2.7789145572702978 4.2443936700277014 255 92 128 175.200012 36 1
-2.3550700630748294 -1.4285465684852463 3.7008735935167043 191 201 215 140.400009 139.200012 1
1.0376305333274722 -0.43061645441891155 3.3889156531098332 64 102 133 500.400024 241.200012 1
0.20427596740325865 0.35653052506851091 0.75250211323652827 203 200 255 489.600006 471.600006 1
1.6885266013077427 0.17927707853498404 4.7665963894650103 99 111 132 520.800049 303.600006 1
0.43630668939391509 0.27985984818345433 1.3369194888600091 255 87 100 511.200012 367.200012 1
-2.2179961167660593 -1.0990325424325937 3.7276647769296303 255 208 215 155.520004 174.240005 2
-2.248093962919508 -1.6207916810313912 3.7835986228577276 200 206 217 156.960007 123.840004 2
-1.4865371119302146 -0.71568448516121919 4.0672176240255382 255 212 214 243.360016 221.76001 2
0.28261232944366887 0.42897058910958963 0.78726911526087684 120 255 88 518.400024 496.800018 2
0.45405312698866307 0.27719801280566014 0.62610562282628146 128 146 255 665.280029 459.360016 2
-2.3793331102624853 -0.52190013793660794 3.7410047299783904 255 233 234 139.680008 234.720016 2
0.4665539478743374 0.42529423354479923 1.2654761749256773 255 88 101 527.040039 417.600006 2
0.16401153020566739 0.38062475025889614 0.95285720634445692 211 255 209 450.720032 439.200012 2
-1.3396927565661589 0.057680421772661708 2.8415858014489195 81 99 255 201.600006 295.200012 2
-2.4518866081546755 0.38090955370421009 4.2119679392690434 150 255 116 158.400009 321.120026 2
-2.8601360617454392 0.52317433643487676 6.1015829191709292 37 41 47 204.480011 321.120026 2
-2.2295692256407325 -0.77769617945018099 3.9213040250945808 222 226 233 164.160004 211.680008 2
-2.2565728332127613 -0.92886073043853379 3.8030332160779188 223 226 231 156.960007 194.400009 2
-0.0096254800633025495 -0.53447123024454857 1.2695987357471232 174 204 255 381.600006 126.720001 2
-2.2766019970524756 -2.7321484725847265 4.1719101611954477 173 255 91 174.240005 34.5600014 2
-2.1420287771226754 -1.343665323676962 3.7648152732756706 200 216 255 165.600006 151.200012 2
-2.2834188961888837 -1.7982390379540745 3.6621846582213804 200 255 157 142.560013 99.3600006 2
1.0715188506390785 -0.81323492143696552 3.5448314022314631 107 134 255 501.120026 198.720001 2
1.1443667983618795 -0.19309761873908435 3.5915972078170513 52 101 127 508.320007 267.839996 2
0.16475586895734629 -0.54094645320789103 1.2771420055528879 178 206 255 433.440002 126.720001 2
0.32761217134193371 0.29918991259570071 0.46105396451535263 255 199 200 655.200012 537.119995 2
0.2069888837653398 0.3528039571129753 0.74445007731500468 203 200 255 489.600006 470.880005 2
1.1299898233716559 0.35877417869709616 1.5222147621029323 94 114 255 669.600037 381.600006 2
-2.4156895839247463 0.15871149336467483 3.6849902389900735 255 220 212 131.328018 302.400024 3
-2.2670596543123858 0.096312743603691242 4.147782146023669 230 255 232 174.528015 297.216034 3
-1.9763823863121113 -0.22903414226348401 4.2795001655817471 64 82 255 209.088013 266.11203 3
-2.3581326961159834 -0.88495732125664006 3.6855577740034171 232 255 223 138.240021 195.264023 3
-2.344408237987734 -1.1353228731417822 3.7045773795499573 255 215 220 139.968018 171.072021 3
-2.3621061816821647 -2.1084750267413268 3.7246755766601494 255 119 148 139.968018 69.1200104 3
-2.3348917825306028 -1.5122404415033199 3.6732422718716573 213 255 189 138.240021 129.600006 3
1.2509416592843858 -0.039150541084450131 1.4824399396114856 243 255 240 706.752075 278.208038 3
0.59199056216304669 -0.56200050756574171 3.4049518907817529 255 224 229 451.008057 221.184021 3
0.061699238074856888 -0.036781461240250453 1.3089129412288307 244 255 240 406.080048 276.480042 3
0.16553143470441056 -0.51914931537717468 1.21414828128573 178 206 255 433.728027 126.144012 3
-0.0028136199770286696 0.10196802464521808 0.46331549614117518 218 218 217 380.160034 369.792023 3
0.24885073157588511 0.30808227914300762 0.79822851351474133 203 255 201 502.848053 433.728027 3
1.2864103356234164 0.096067818588867121 1.5215793702514344 154 255 132 710.208069 314.496033 3
1.1069414185044524 0.34203606486488636 1.7105254584687681 83 95 110 632.448059 362.880035 3
1.2971510232216519 0.32547906929341075 1.5286858007143502 255 210 210 711.936096 373.248047 3
1.4714416946140962 0.17012427328372581 4.276527598321751 99 111 133 520.128052 302.400024 3
-2.1615535288060248 -2.1686819211224879 6.6565577085730681 255 186 201 259.200043 161.740829 4
-1.5296058014328282 -0.8560353678478595 4.0760276629714856 199 255 193 238.464035 209.433624 4
-1.4926782607412195 -0.59809572325698879 3.7381964023522181 217 255 216 230.169632 226.02243 4
-2.674083759731781 -0.59210104053015167 5.2281248425670013 67 85 104 188.697632 244.68483 4
-2.2378335721398077 -0.35188050301472379 3.5724460330787116 234 238 255 141.004822 250.90564 4
-0.012596481801165904 -0.54692183209189171 1.2969187190668816 174 204 255 381.54245 126.489616 4
-2.474336394984141 -2.4671725274634082 3.8901158522410633 131 175 255 141.004822 43.5456047 4
-2.0699597872384299 -1.2927967086514549 3.6588399826375966 255 189 201 167.961624 153.446426 4
1.2963723827669791 -0.040213738754643222 1.5493149000536 255 240 241 707.097717 277.862427 4
0.069976599043476195 -0.25644343639133166 1.2145721353465542 231 255 214 406.425659 207.360031 4
0.73470878887677926 -0.81152454077340397 3.1256278564778839 227 255 205 474.854462 188.697632 4
0.17245424433996515 -0.52382507252234911 1.2508483432165522 177 206 255 437.529663 130.636826 4
0.15863195355710247 -0.52927101921094966 1.2290813978322879 178 206 255 433.382446 126.489616 4
0.34972963215696234 0.28150310917130245 0.47422699895167975 255 194 195 663.552124 514.252869 4
1.284066167081348 0.087904725310897852 1.5033813582389297 255 133 140 711.244873 315.187256 4
1.1362881975068904 0.041063901844629075 1.4262683193012846 71 255 34 686.361694 298.59845 4
1.2353269277960894 0.31671411150709555 1.441046068882569 255 210 210 711.244873 375.321655 4
1.0093300359566284 -0.13144084389213456 1.5361046951844952 46 255 30 634.521667 255.052841 4
0.47023533029700493 0.15674403057364322 2.3809216506610071 94 106 128 460.339264 313.528351 5
0.061792190935566427 0.015207115801498226 0.92912411805932882 237 239 244 408.084534 293.621796 5
-0.017895446103109558 -0.54109183717436093 1.2792009227844692 151 175 205 380.713013 124.416016 5
1.3084424025562122 0.096568500506753308 1.5538724020963286 255 124 134 711.659607 313.528351 5
-2.2682612146856638 -1.1357009088863272 3.7895923211074147 225 255 209 154.275864 174.182419 5
1.0274159012484914 -0.75682453046536302 3.3832907826070207 133 255 68 502.640717 201.553955 5
0.90007334614981882 -0.86793041324454212 3.2411422872393056 255 102 127 487.710785 181.647385 5
1.2696097930510777 -0.05844001742677668 1.5095253107632043 255 241 242 711.659607 271.226929 5
1.2489619322192695 -0.12419666625621861 1.4809593526734588 240 242 255 709.171326 256.296997 5
1.0494519905400459 -0.1189260525518632 1.4764965703066102 28 42 54 656.916565 256.296997 5
0.19363541482823138 -0.41847191942685003 1.2330570276732487 197 216 255 445.409332 154.275864 5
1.1294138409847359 -0.19560543155961699 3.5215036131697608 128 255 54 510.105682 266.250275 5
0.068568913819097022 -0.27496668614519482 1.3095059796126121 214 222 231 408.084534 206.530594 5
1.2899224265763545 0.33091389905848378 1.511520832981577 255 210 210 711.659607 375.736359 5
0.15147617734549401 0.36445460208714453 0.78835389141138024 213 210 255 457.850952 462.827576 5
0.070068482023281864 0.37478508981690795 0.99704552308186223 255 209 212 415.5495 432.967743 5
-2.3164837395863946 -0.28405484826429706 4.0821744520778411 241 255 237 166.717468 261.273651 5
0.76343998895805287 0.16448358131813606 2.3635943437360294 105 127 255 505.129028 313.528351 5
-0.0078606098626408105 0.12865672424269059 0.26323487971489418 255 206 210 375.736359 480.245819 5
1.0753185536499632 -0.14157991113855078 1.6583248831204824 42 46 255 637.01001 256.296997 5
0.074602916053777224 -0.2569106677412672 1.1882783973256041 231 255 212 406.093903 206.032928 6
-2.0810413956786551 -1.4566487281403953 3.6536372042534175 186 198 213 164.229156 137.355286 6
-2.4254017532616556 -1.9247669416708977 3.8628660017228729 255 146 167 143.327255 95.551506 6
1.3310700432803451 -0.15383227154293599 3.8866572010904479 81 99 255 513.589355 271.724609 6
1.1321308713693892 -0.19652916650901991 3.5280777372966612 255 56 105 507.617371 265.752625 6
0.86937010014368665 -0.28921207604769905 3.5195238131193292 92 122 160 480.7435 256.794678 6
-2.2139464129329478 -1.1134837846179058 3.7024559361717708 209 215 225 152.285217 173.187103 6
1.0569581123063343 -0.80092471753064665 3.4939102256837149 111 139 255 501.645416 203.046951 6
1.3712714705769076 -0.15138846544471138 1.6541449151323711 255 239 240 707.678345 256.794678 6
1.0667243932489923 -0.13683644742870285 1.6255496328709553 32 41 46 636.014709 256.794678 6
-2.6318585754014001 0.17112305082577034 3.9893924792910269 223 219 228 128.397339 301.584442 6
1.0428933204381212 0.070987755011154577 1.6046142013700386 255 76 88 627.056763 307.556396 6
1.2532828621628727 0.37974020526087227 1.990630105229076 255 98 109 627.056763 361.304138 6
-2.4945922363199267 -0.38938480829870858 3.9617107776349725 255 232 234 143.327255 250.822708 6
0.27762799493739354 0.26102721510540372 0.44502844122174479 96 126 255 621.084778 516.575317 6
0.92180889971601876 -0.83631983188851944 3.2942339299779229 255 94 122 487.312714 186.325439 7
0.076129805890988722 -0.29493633612397979 1.1854431309742195 206 216 228 408.482697 193.491806 7
1.0090459726813767 0.40040895950732536 1.5569152606739238 143 255 102 634.223145 394.149963 7
0.20355945318481072 0.35668913365839194 0.74841662208437176 255 205 208 487.312714 469.39679 7
1.026523964137892 0.072490244869656495 1.5753095883003685 255 79 92 627.056763 304.570435 7
-2.9311737551426957 0.17953407179203063 4.3763449575019608 226 224 232 128.994537 300.987244 7
-1.9140862348249086 -0.41112710144939862 3.8794767158251462 88 107 255 189.90863 243.656357 7
0.78307185968354642 0.39672764552339512 1.1077174739619586 180 255 189 662.888611 426.398621 7
1.5986095654057595 0.13110253528956556 4.5653314625384889 99 112 133 512.394958 304.570435 7
-1.5201559712915311 0.19769752486981432 2.5073680811904802 157 255 135 150.493622 318.903168 7
0.055920617047805266 0.017275140026001876 0.93348782106129935 234 237 241 404.899536 293.820892 7
0.14772733979218344 0.42013978047352207 0.81745218207188719 255 208 211 455.064056 483.729523 7
-0.0068900784030437867 0.12710155433751169 0.26157839970265956 206 210 208 372.650879 480.146332 7
1.1338111347039359 -0.21222702190935935 3.5246109010316951 97 122 255 505.228607 261.572266 7
-2.5378245129836317 -1.9009626982207259 3.9692423911963601 255 162 179 139.74408 103.91227 7
