ply
format ascii 1.0
comment Written with hapPLY (https://github.com/nmwsharp/happly)
element vertex 149
property double x
property double y
property double z
property uchar red
property uchar green
property uchar blue
property float ix
property float iy
property uchar octave
end_header
-2.3188183520912014 -2.2639472727233745 3.6943464222226292 255 102 134 143 52 0
-0.046988919671036466 -0.5331591352024978 1.2918773669367416 205 255 143 370 130 0
1.0994129469029181 0.16463871531165433 1.4585155765321578 81 96 255 673 331 0
-2.2016998161401999 -0.37161398972717552 3.6813610174930824 238 255 233 154 250 0
-2.1825409625139462 -0.66132213084462577 3.6608303865675098 234 255 226 154 220 0
1.0838899310160073 -0.18358545824334807 3.5353424200998673 118 255 42 502 268 0
1.0043641057929764 0.084742184665596146 1.6145005530135978 87 255 59 622 307 0
0.034345470114475862 -0.28501411269559723 1.2008675444172192 228 255 205 394 197 0
1.0061758278107953 0.2847711238336213 1.6143463023709308 111 255 83 622 355 0
-2.4327116824733763 0.15959500940344207 3.6847734689668918 223 255 220 130 304 0
-2.3087678674042587 -0.28938654656270646 3.7801883483017504 255 236 237 151 259 0
-2.495348495442133 0.37722862181293071 4.2308901733769346 128 147 255 157 322 0
-2.3540328435596249 -2.7823581096612644 4.2641723339089639 91 127 173 172 37 0
-2.2439797786609801 -1.3793652248802024 3.751936931487927 216 255 190 154 148 0
0.99646864030343263 -0.42868321440745338 3.4120869449682902 144 255 66 494.400024 241.200012 1
1.1012278161504709 -0.08504826327579304 1.4652505428903873 240 243 255 673.200012 265.200012 1
-1.6552103569931669 -1.5032500738591998 5.7822982664216038 219 228 255 273.600006 189.600006 1
-2.1556241092893305 -1.3310305219370884 3.6122377513147921 202 216 255 153.600006 147.600006 1
0.024049298819233123 0.015397903975587077 0.96120578913512222 181 180 255 393.600006 291.600006 1
-2.0385371020007366 -2.0355025728033969 6.2125575171852914 216 255 178 258 160.800003 1
0.034785255553793748 0.15312228691216778 0.99549006210291191 102 255 101 398.400024 348 1
-1.6995694316342149 -0.59950517067655462 3.7949883886034734 255 118 128 211.200012 225.600006 1
1.0282996756697491 -0.81430972890787334 3.5599718804126281 255 61 93 495.600006 199.200012 1
-0.048140631759564956 -0.53474034668259351 1.2915732245857383 172 204 255 369.600006 129.600006 1
-2.4478712748009128 -2.4123738169943452 3.8192386005197991 255 97 131 139.200012 45.6000023 1
-2.287009720269642 -2.5134833921501727 3.7570226731632088 173 255 95 150 31.2000008 1
-2.2793035521081273 -1.0957635313894241 3.7877307275674732 217 226 255 153.600006 177.600006 1
0.50140592320387412 0.19917208254190211 0.68184112776012529 71 70 87 664.800049 399.600006 1
0.1861388486337488 0.28657053786505177 1.2957414692020515 213 211 255 441.600006 372 1
0.33425008577289256 0.3864291174679586 1.8356894671289929 194 194 255 453.600006 367.200012 1
0.038584410809903824 -0.24603148105426564 1.1921244634224295 231 255 209 394.800018 207.600006 1
0.49908015752947377 0.23562450679819857 0.6494185825807286 66 255 61 678 427.200012 1
-2.207287103236617 -1.2167060585254594 3.6990749617998699 195 205 219 156 162 1
-2.3087678674042587 -0.28938654656270646 3.7801883483017504 239 255 236 150 259.200012 1
-2.4479791207017891 -1.8863232769371709 3.8813021786423763 175 200 255 141.600006 100.800003 1
0.89481388691695929 -0.91513138624324375 3.4362750088021725 255 63 98 483.600006 186 1
0.99490959218440378 0.085199342670687461 1.5922346258081645 69 83 255 621.600037 307.200012 1
1.0308101267109731 -0.8112107716482343 3.5681265884988296 255 63 101 495.360016 198.720001 2
0.035760257701702325 -0.2537604972909292 1.2351531462937972 220 231 255 397.440002 207.360016 2
1.0896949367598441 0.3604510946568395 1.5453207838839047 255 89 97 655.200012 378.720001 2
-0.057033140788784076 0.041433442011484856 0.59717969840877583 108 123 141 348.480011 312.480011 2
1.5558504143632499 -0.18372052834495242 4.7851482169154229 255 40 83 511.200012 272.160004 2
0.22182642158024091 0.26690042487865817 1.2835543591178278 194 194 255 453.600006 367.200012 2
0.44978009713216827 0.20684653485429741 0.65824292472317414 103 255 58 646.559998 408.960022 2
0.20696491253470417 0.30395273399737066 0.80170592544337371 84 96 117 480.960022 432.000031 2
-2.2584369575262042 -1.1024291555841548 3.7471868974014266 213 218 226 152.639999 177.12001 2
-2.2286713152229343 -0.7427846035310085 3.7153715887059651 222 226 232 152.639999 211.680008 2
-2.2973839839634977 -0.93230512382385899 3.8224727205766151 223 226 232 152.639999 195.840012 2
0.18101489633542123 0.4179273105537169 0.75851156029364053 101 118 255 473.76001 501.120026 2
0.13438485623998475 0.28186306817242918 0.99194431703930119 255 209 213 439.200012 396.000031 2
-2.207820912092453 -0.37292357753433736 3.6881986798643194 233 235 238 152.639999 250.560013 2
-2.3807860111912817 -0.37484810687452985 3.6987878156916785 255 232 234 135.360001 250.560013 2
1.5841318929749302 0.16486300973562959 4.5783959634747458 198 199 197 516.960022 303.840027 2
-2.271969256632159 -0.30052024150864237 3.546526982676018 255 234 236 135.360001 254.880005 2
-0.044276236515241596 -0.53125134822838171 1.2804493180321419 204 255 144 370.080017 129.600006 2
-2.3423289130032825 -2.1389861808641566 3.7203729239310288 149 185 255 141.12001 66.2400055 2
-2.3148500930130353 -2.7355429149851607 4.1917242349832176 255 91 127 171.360001 36 2
-2.1821070397307682 -1.3469273520429035 3.7844799740862376 216 255 187 162.720001 151.200012 2
-2.2877339112474724 -1.6242253062587522 3.8032008162839888 216 255 199 154.080002 125.280006 2
-2.3226225934189682 -1.8017576410073404 3.6817849272037475 174 199 255 141.12001 99.3600006 2
0.9698329117162956 -0.12996053425894302 1.5591782464780344 255 87 99 623.52002 256.320007 2
0.87525612829025645 -0.90055935378106489 3.3762685934453756 255 62 95 483.840027 187.200012 2
0.12705517335714389 -0.51913979839940561 1.2363236843749086 149 174 204 420.480011 126.720001 2
-0.051460671558300475 0.12618815783006046 0.21714784161894024 201 205 204 292.320007 512.640015 2
1.2465519400571448 0.098004639939289873 1.5449258101120924 141 255 122 694.080017 315.360016 2
1.5729501842361722 0.30183043665426934 3.8360880555904187 73 95 255 541.440002 319.680023 2
-2.0889818671735956 -0.23508633884611019 3.6516714099178618 240 255 238 162.432022 264.384033 3
-2.4581679913902623 0.15497561520063632 3.7040041247499493 255 222 217 127.872009 302.400024 3
-2.3847616483879537 -1.1389343562849956 3.7239601153591013 226 255 216 138.240021 171.072021 3
-0.062838332585998247 -0.51089113917342965 1.2624490509340742 146 174 205 364.608032 133.056015 3
-2.4311003723443276 -2.8729053002104852 4.3644215881709885 255 90 127 171.072021 34.5600052 3
1.0391216071999017 -0.14137933719717274 1.6924067303373147 255 88 98 623.808044 255.744019 3
0.034122806848777332 -0.34944215176523113 1.1915289411207237 255 188 203 395.712036 174.528015 3
0.037722639734320662 -0.64177707304449683 1.361481577165125 161 197 255 393.984039 105.408012 3
1.2569035118173819 0.32743496400897909 1.5519941036423173 210 211 209 696.384094 371.52005 3
-1.704901203774956 -0.30482880283718922 4.0133958227331528 210 210 255 221.875229 259.200043 4
-2.3087133245997333 -1.1391673662872326 3.809063877928299 255 211 216 151.372818 174.182419 4
-2.3586907130411245 -0.28753848778746716 4.1014015108538047 255 237 238 163.814423 263.347229 4
-2.7171154264797281 -0.5959271156057675 5.2470020906988761 59 78 98 188.697632 244.68483 4
-2.2379788058306866 -2.0733896371813736 3.5760979806871798 149 185 255 141.004822 66.3552094 4
-2.5126952080673464 -2.4709572840234344 3.9096410307043143 175 255 97 138.931213 45.6192055 4
-2.5780629860935314 -1.9069453733835877 3.9860740341218781 164 180 203 136.85762 105.753616 4
1.0391216071999017 -0.14137933719717274 1.6924067303373147 60 70 75 624.153687 257.126434 4
1.256707829357999 -0.038254121758529408 1.572703030028034 238 239 241 692.58252 279.936035 4
1.3107553445149422 -0.14076535324712866 1.6440963467584588 242 255 239 694.656128 255.052841 4
0.031063969151987836 -0.25659282341117323 1.236578098662741 211 220 231 396.057648 207.360031 4
0.035055454962379717 -0.35136866954936158 1.1971531031342109 188 203 221 396.057648 174.182419 4
1.0162883842900083 -0.79893590341817711 3.5171857501820081 255 61 93 495.590485 199.065628 4
0.022311954874127737 -0.036924241265794806 1.3308606803013834 229 231 255 393.98407 275.788849 4
0.15496992223278072 -0.41841174380204382 1.2552429596014381 255 186 200 431.308868 159.667221 4
0.0058518965666315426 0.44169359128522168 0.73687875953104987 255 164 171 387.763245 516.326477 4
1.2685454605665134 0.098548966469393706 1.5772444008562148 141 255 122 694.656128 315.187256 4
1.1951963249421296 0.31854819703922477 1.4642842741417903 207 255 211 694.656128 373.248047 4
-2.9744921377235571 0.17509369275174572 4.3947526234400387 218 227 255 121.927696 301.086761 5
-2.674712228389974 0.16709490393888476 4.0081513230938466 228 255 223 126.904335 301.086761 5
-2.3732715270804556 -1.8486519849302465 3.7633397814606573 171 198 255 141.834259 97.0444946 5
-0.065996638941708596 -0.51542483982993903 1.2740320685031949 255 145 173 363.294769 131.880981 5
-2.3731975648467429 -1.1654230678712458 3.8965261748895639 255 211 216 151.787537 174.182419 5
0.85981002019200548 -0.86625728887856057 3.264249838085505 101 131 255 485.222473 189.11235 5
1.2442425545216378 0.089833682958710942 1.5267268799854943 120 129 148 696.729675 313.528351 5
1.331669019304865 -0.14928140602831472 1.6776448620602324 242 255 239 694.241394 256.296997 5
1.0904178846575645 -0.19440889986950624 3.5513074410271228 123 255 45 502.640717 266.250275 5
-1.5339643914778542 -0.60028656102198297 3.758453725791723 217 255 215 226.437149 226.437149 5
0.0098680390864159806 0.42944300302385874 0.71420067864487413 145 153 152 388.177979 515.082336 5
0.029576292870442389 -0.27509760601891253 1.3315143237182787 255 208 219 395.642944 206.530594 5
0.037826933291693177 -0.35998323759890372 1.2207565847934752 255 188 203 395.642944 174.182419 5
1.2496859317114195 0.33285402859244917 1.5348195185178244 207 208 205 696.729675 373.248047 5
0.42927546488063634 0.15751386570919368 2.4033023021251592 255 83 96 455.36261 313.528351 5
-0.058276672371740279 0.03920235508156214 0.59786223963543528 107 123 142 348.364838 311.040039 5
1.0029801953319746 0.072538504116371652 1.6276821443848624 255 73 86 619.591797 303.575073 5
1.0356955530894456 -0.13996328395069957 1.6814775379437594 61 70 76 624.56842 256.296997 5
-2.5772153597048821 -1.9048363109377393 3.9885684503456798 163 179 202 136.85762 104.509453 5
1.022345702527979 -0.1381391080998326 1.6448680088517074 61 70 76 624.070801 256.794678 6
-2.4646292290032656 -1.9284771637181604 3.8823284941173855 147 168 197 140.341278 95.551506 6
-0.096745729315125928 -0.46129492694092816 1.2935213353495509 255 174 193 355.332153 158.257187 6
-0.03378887165313893 -0.57842576601869866 1.2965141445485442 147 171 201 376.23407 116.4534 6
1.1808600401689859 0.08168551280999832 1.4407609140466535 255 115 123 695.734375 313.528381 6
1.1427418501172648 0.04731139757519752 1.5175740497297308 37 255 34 674.83252 301.584442 6
0.022761637234264054 0.014981292000383326 0.95106075711007931 255 134 142 391.163971 292.626495 6
1.0877069952954839 -0.19349111585392506 3.5447299491798634 99 125 255 501.645416 265.752625 6
0.82782147764119896 -0.28752978395668904 3.542467572079036 98 127 255 477.757538 256.794678 6
-2.254333867822333 -1.1168791724396077 3.7219859882105939 216 225 255 149.299225 173.187103 6
1.0453515132874758 -0.82520708673286858 3.6554064186174764 255 61 94 495.673431 200.060959 6
0.88143112629912868 -0.8345990453483576 3.3173598096109611 255 65 100 483.729492 191.103012 6
0.13194887103019792 0.41311556201071087 0.75236727072275222 255 185 191 447.897675 498.659424 6
0.10815472030181161 0.42003162831644536 0.83939969906490797 255 170 178 435.953735 480.7435 6
0.026079307716996847 0.4233118259120946 0.87686489810616441 202 198 255 397.135956 471.785553 6
1.2300219636282086 -0.05653351514196206 1.5328862847763216 255 241 241 695.734375 271.724609 6
1.0100035436494796 -0.11739219739160567 1.4996141886715511 90 99 255 641.986694 259.78067 6
-0.058158270889822949 0.039485993871625956 0.59859601741176383 119 255 95 346.374207 313.528381 6
1.0029801953319746 0.072538504116371652 1.6276821443848624 108 255 79 618.098816 304.570435 6
1.5551418139469795 0.13422382164104804 4.5890320604010846 255 199 199 519.56134 301.584442 6
0.72248688651555359 0.16573638446147651 2.3863152169845798 133 255 99 498.659424 313.528381 6
-2.5364834828553362 -0.39319036194645074 3.9807534808417966 255 232 234 143.327255 250.822708 6
-0.04630257280731187 0.12816936169103182 0.28506571826201954 209 207 255 325.472321 462.827606 6
0.13394291924877955 -0.52379602327685792 1.2730328255359116 206 255 150 426.995789 134.369308 6
-2.1208025502575185 -1.4598336866942296 3.6733980526955659 197 213 255 161.243164 137.355286 6
-2.2666848256839764 -1.1042316065065272 3.727704073399686 226 255 213 150.493622 175.575897 7
0.98860991973405921 -0.77174085110424839 3.4626638594473351 123 255 60 494.479065 200.658173 7
0.36903108135837021 0.27321669169240698 0.5140839433936838 193 194 194 652.139038 494.479065 7
1.0921282457967387 -0.21010470309765439 3.5478460329588133 99 125 255 501.645416 265.155426 7
-1.9558466570049049 -0.41398688280554308 3.8992012314617135 106 255 71 186.325439 243.656357 7
0.9866425627047215 0.074007401813876869 1.5983581314813866 86 98 118 616.307251 304.570435 7
1.4802816109158892 0.11990114692558387 4.1805121812597257 255 198 199 515.978149 297.404083 7
0.016881552365813235 0.017040520671299242 0.95541715325578025 151 255 116 390.566803 293.820892 7
0.037315037649704896 -0.29508183081073336 1.2074647903571951 227 255 202 394.149963 193.491806 7
1.022345702527979 -0.1381391080998326 1.6448680088517074 255 86 97 623.473572 257.989075 7
-2.6602636096880947 -2.3089918559714704 4.1036748653589825 115 145 184 136.160904 71.6636353 7
-0.045327529589580418 0.12661544259794597 0.28341071461322115 207 255 205 326.069519 462.230438 7
