ply
format ascii 1.0
comment Written with hapPLY (https://github.com/nmwsharp/happly)
element vertex 163
property double x
property double y
property double z
property uchar red
property uchar green
property uchar blue
property float ix
property float iy
property uchar octave
end_header
-1.7030071726587579 -0.93823166725317886 2.9508985880154195 255 217 224 163 166 0
-1.3940322007060786 0.34382038245824637 2.7404678595231418 185 255 160 190 338 0
1.5771678368820194 -0.3538648956797032 2.4688064700769421 179 182 198 628 232 0
0.62136039579494828 0.46800296059753993 1.7902271267992718 255 207 211 519 389 0
-0.47553981066860307 0.44759121737471075 1.0205508808265744 54 88 86 204.000015 456.000031 1
0.027800101698304713 -0.60487906565482574 5.1221038377654304 161 174 176 384 243.600006 1
0.26422193713431064 -0.73695675220940726 5.0105884387326318 157 178 255 405.600006 232.800003 1
-1.7042436680908368 -0.62371557551649648 2.9721708926669868 255 234 236 163.200012 207.600006 1
-1.7784520778952997 -0.73931565731139415 3.1216104607566209 236 240 255 165.600006 196.800003 1
-1.101316191697733 -1.5721914967822566 5.5237951178695113 210 222 234 304.800018 178.800003 1
-0.31094614637706264 -0.069274468453685789 6.2399159076799631 97 118 138 364.800018 282 1
-1.664323240840706 -1.30143086894478 2.9101906317155986 255 208 216 163.200012 115.200005 1
-1.4552576892704838 -0.83030239486322444 2.8550539511520028 228 236 255 189.600006 177.600006 1
-1.7343666960523012 -0.8589967500755169 3.0058177806193314 255 226 230 163.200012 177.600006 1
1.2577526309965434 -0.50126516868956028 2.572044248651201 255 227 233 571.200012 213.600006 1
-0.54704210832112832 0.3475485420426736 1.1286173451906709 57 68 93 200.400009 405.600006 1
-1.4952751930788812 -1.0657487310268803 2.9169902027001897 255 206 216 187.200012 147.600006 1
-1.7083016149834558 -1.0955984619349575 3.0009623840152746 219 230 255 165.600006 147.600006 1
-1.6068729928324688 -0.19243786736199286 3.8544205240917133 128 148 255 225.600006 271.200012 1
-1.6364576599173124 -0.054543387144423292 2.9277457271325367 245 247 255 169.200012 279.600006 1
-1.5220675681964844 -0.22314639376546747 2.8887835341420409 244 246 255 181.200012 258 1
-0.76474998428385588 -0.39440917073169196 2.9093633340587859 255 227 229 283.200012 235.200012 1
-0.84902947308433596 -1.7400386050456613 4.8889558780899538 228 255 190 318 151.200012 1
0.29511711691663667 0.47993241552832666 1.0116515674336219 255 225 225 495.600006 469.200012 1
-1.2253437268137293 -1.7718513952798645 4.8920305443130365 209 227 255 289.200012 147.600006 1
0.18516503070507384 0.47726418837112616 0.7129022749752294 255 109 118 483.840027 542.880005 2
0.46297664775895986 0.45305016546869536 1.1842049821122536 255 149 159 531.360046 434.880005 2
-1.635043436106816 -1.7528714065779698 2.9266297223321156 169 205 255 169.920013 57.6000023 2
0.26422193713431064 -0.73695675220940726 5.0105884387326318 255 146 164 403.200012 231.840012 2
0.66951603015423888 0.31730547751731841 0.86844084350502349 102 101 255 681.120056 430.560028 2
-1.438191160291157 0.30681415803282808 2.5325393526805589 230 212 184 168.480011 334.080017 2
-1.5243672792068597 -0.31398865483356431 2.944466180396307 255 240 242 187.200012 246.240005 2
-1.6360329915012417 -0.31075074908637451 2.8687980163769153 241 243 245 164.160004 247.680008 2
-1.5078852798123039 -1.0119824724525806 2.9157887325290055 218 230 255 185.76001 154.080002 2
-1.6558702619863039 -1.059586301417605 2.8917198028034603 211 219 230 164.160004 146.880005 2
-1.4353872867901911 -1.1876438467134669 2.8198090927770747 190 206 223 188.640015 126.720001 2
0.63257951126529854 0.48214277157564805 1.8401513930298186 203 208 209 516.960022 388.800018 2
-1.4646159109644463 -1.282955467138549 2.8621132016112854 203 221 255 185.76001 115.200005 2
0.051905739308065968 0.32125670058688621 2.4157693010484018 198 255 190 390.240021 339.840027 2
-1.0426670462219088 -1.5106607497403086 5.1119947564085031 221 234 255 305.279999 177.12001 2
-0.99376660043080811 -0.14429103009672675 2.9182880729818796 97 116 255 253.440002 267.839996 2
-0.56474965665948473 -0.088453364043396265 4.1052127343514249 255 115 103 331.200012 280.800018 2
-1.4286597094109079 -0.89513114440279073 2.8180998398072949 213 222 233 188.640015 165.600006 2
-1.5220675681964844 -0.22314639376546747 2.8887835341420409 244 246 255 181.440002 257.76001 2
-1.1174321076896812 -2.2049123329224729 6.2201774352627037 190 210 228 316.800018 151.200012 2
-1.5438298066435863 -1.8902538981706336 2.797774725856454 255 126 160 171.360001 30.2400017 2
1.091215031129281 -0.70069126460313447 2.5490593979132368 235 255 216 550.080017 181.440002 2
-0.28609330654715981 0.46613916572815328 1.3779171264661243 134 255 99 302.400024 420.480011 2
-0.79705375043030191 0.36357097591807508 3.005044970513612 255 161 163 279.936035 335.232025 3
1.2511678521463647 -0.50138558241765641 2.5958113159188261 241 255 227 570.240051 214.272018 3
-1.5259879886608738 -0.31746780015549175 2.9428711178597031 245 255 240 186.624023 245.376022 3
-1.6330906541994481 -0.37543303693394198 2.8862079110733263 243 245 255 165.888016 238.46402 3
0.89335524169802216 0.38302726743140258 2.4797409278175104 255 87 91 523.584045 347.328033 3
-1.3626092435099881 0.33774370698599443 2.6903789582101072 200 255 183 190.080017 336.960022 3
-0.78598196105166673 0.14495119266891932 3.0471843814314568 128 145 255 285.120026 309.312042 3
-0.80839087628348194 0.26020171011664389 1.2144925567535472 89 103 255 129.600006 366.336029 3
-0.31315011124302039 0.45760913655122565 2.1282901396486782 106 120 139 324.864044 369.792023 3
-1.3375941676150389 0.51679751565390231 2.0593309740743089 52 255 35 134.784012 387.072021 3
0.047909906369934641 0.31746834898091597 2.4339132134923518 187 255 183 390.528046 338.688019 3
-0.75626394900473759 -0.51659181917311259 2.8426859104583855 255 230 231 279.936035 217.728027 3
-0.99376660043080811 -0.14429103009672675 2.9182880729818796 112 255 71 250.560028 266.11203 3
-0.77313111864580986 -0.39207661924106474 2.9235789537871719 230 230 255 281.664032 235.008026 3
-1.6892067155774639 -0.47661735632353119 3.9009495566609704 117 131 152 216.000015 243.648026 3
-1.3943414229815789 -0.18160233202767723 2.8894270091700478 246 255 245 198.720016 264.384033 3
-1.0324813525605014 -2.0604465988781739 5.8076202869676488 191 211 228 316.22403 152.064011 3
-1.7108713278700463 -1.4727210353989513 2.9736829782241689 171 193 216 164.160019 96.7680054 3
1.5675274591928119 -0.82979577023040718 2.5295655175595608 217 231 255 625.536072 162.432022 3
-0.25440571267437573 0.43119034624507557 1.2586788111289695 136 255 100 302.400024 419.904053 3
-0.063397291630530539 0.33983463934480646 0.52843825365741903 221 222 220 336.960022 535.680054 3
-0.5214365190427479 0.47726801620099324 1.1130738956402539 255 57 91 203.904022 454.46405 3
-0.52979928182214153 0.36975865644117512 1.0529256691163842 55 255 122 190.080017 423.360046 3
-1.4467144200901707 0.13473736975713815 3.7057338488477418 114 132 255 233.280029 300.672028 3
0.47287925561422461 0.47604792278112207 1.2676823424877943 184 255 153 530.496033 433.728027 3
1.9477861874031022 0.20522850709496598 2.9186918794369032 175 255 125 642.81604 316.22403 3
0.10766894692272233 0.46073705523077085 1.6180657035554238 201 202 132 412.992035 397.440033 3
0.042085063555356683 0.33715101952175919 2.6291206049621998 210 210 255 389.836853 340.070435 4
-1.4311268291988091 0.1360954241731028 3.6310383233771892 106 123 142 232.243225 302.745636 4
-1.4161295263643616 0.14456671650927025 3.5997636878374148 139 255 108 230.169632 300.672028 4
-1.3201940881000573 0.50597008382592434 2.0394885743971485 52 255 35 134.784012 387.763245 4
0.51909262778437593 -0.47334011666725473 4.475537119640105 193 201 255 429.23526 248.832031 4
-1.599043910083779 0.36225222707912597 2.8498668265278013 178 178 182 172.108826 337.996857 4
-1.9808480754995665 0.40688648519950227 3.4529676238903138 255 221 210 167.961624 333.84964 4
-1.4321925668987063 -0.68407404730427512 2.9514017476019672 255 229 233 199.065628 199.065628 4
-1.6252855662822832 -0.81368971737772067 2.8347995512113524 255 225 229 163.814423 176.256027 4
-0.95515342477755194 -1.9138300861656332 5.4317474851904013 210 228 255 317.260834 151.372818 4
1.2640396871296975 -0.84964347760548187 2.6098800270236899 229 232 237 572.31366 161.740829 4
1.1300375450079307 -0.72698023720923344 2.6337633315011355 225 235 255 549.504089 180.403229 4
-0.39206731117797133 0.45535509302369409 1.2668497653994999 255 92 123 263.347229 423.014465 4
-0.4326552793719658 0.47197841929568152 1.2207541508644524 127 255 96 250.90564 439.603271 4
-0.061116240618506179 0.11498827640464908 2.8666547940415428 255 117 137 375.321655 300.672028 4
-1.3801133771764045 0.2077450582027483 2.8241833057508066 126 255 185 194.918427 317.260834 4
-0.50493115056232662 0.322651459865755 1.0399874121280783 71 95 255 201.139221 406.425659 4
0.61559193742486329 0.31578871947031695 0.91448875004118135 106 106 104 644.889709 420.940857 4
0.022938713105680852 0.32178342113197211 0.59500115159383826 220 255 220 398.131256 497.664062 4
-1.1121803079033548 -1.5790927160139121 5.4760930782566328 209 221 234 304.819244 176.256027 4
-1.8045473614774776 0.34920743315511144 3.110387997404084 179 186 255 161.740829 325.969971 5
-0.52854679091899515 0.39384934053011905 2.6324498629166957 255 217 222 303.575073 348.364838 5
0.41589990959465895 -0.34493965803004611 3.1744732292629916 215 255 131 430.479431 246.343719 5
0.53265203944880091 -0.49673314161431381 3.7207783232282878 255 234 238 435.456055 236.390427 5
-1.6400224773329874 -1.7718440448919506 2.9445509813265871 167 204 255 169.20578 54.7430496 5
15.845604168345034 -18.984434654269847 33.421367221105477 139 173 209 564.848694 72.161293 5
1.3170960344426084 -0.83033795973679025 2.3929660331563944 228 235 255 597.196899 159.252502 5
0.078435043172505825 0.42684943986085827 1.2696673323750618 109 125 255 405.596222 415.5495 5
0.18366769994557197 0.45129607150502093 0.77019505014310274 203 207 205 472.780853 512.593994 5
-0.76943302329760765 -0.52334353626127872 2.8595191881776234 231 255 230 278.691895 216.483871 5
-0.38473277351710622 0.44405266452513648 1.0003405790772704 68 100 98 236.390427 455.36261 5
-0.37848456723154067 0.43082079155990205 1.2120232107555853 255 92 123 263.761963 423.014465 5
-0.28653845642174636 0.44905063738903417 1.3484435090998637 139 146 255 301.086761 413.061188 5
-1.0252308926669595 -0.15383026394999577 2.9726624761668532 255 73 92 251.320358 266.250275 5
-0.76648803870294246 -0.38124846104925753 2.8954122776601423 229 229 255 281.180206 238.878754 5
-0.54132616251594334 0.474134876807907 1.1355901921424389 94 95 255 201.553955 452.874298 5
0.64256589091695793 0.336591852166301 0.81430841725070402 127 127 123 684.288086 445.409332 5
0.26166902339893894 -0.64352145345312217 4.4330236508050458 255 146 164 403.10791 231.413788 5
-1.2828300001763537 0.44403459440873194 3.7653515373085229 77 84 77 256.296997 335.923248 5
-1.3454192597677812 0.12702501313812734 3.4172006437003724 255 105 122 231.413788 301.086761 5
0.13614109955735354 0.50977731616563993 1.7318918728817625 255 192 201 415.5495 398.131256 5
-1.4548068061815203 0.34714260740263958 2.8695295705053727 204 211 255 189.11235 335.923248 5
-0.95515342477755194 -1.9138300861656332 5.4317474851904013 194 212 228 316.016693 154.275864 5
-1.3464245566727211 -1.995934136062564 5.4686297728135607 203 215 228 288.645172 149.299225 5
-0.41800356944707473 0.47570468696250712 2.7739133485515719 236 255 235 322.486328 349.360199 6
-1.6240578254415854 -1.760438685015614 2.9206112646321523 205 255 135 170.201126 56.7337074 6
-0.95515342477755194 -1.9138300861656332 5.4317474851904013 191 211 228 316.514374 152.285217 6
-1.5095670149583986 -1.0411433193877548 2.8972931616997428 217 229 255 185.131042 149.299225 6
-1.6746158187960165 -1.0784217257930084 2.9390054617427532 210 219 230 164.229156 149.299225 6
-1.3394090973973491 -1.962707023131371 5.4355074260052616 210 227 255 289.640503 149.299225 6
-0.097085318134040088 0.38124561909994414 0.64310454443330434 216 215 255 325.472321 516.575317 6
-1.6235585194526814 -0.30328388186702837 2.8812083776946014 255 241 243 167.215134 247.836716 6
-0.91414290790671382 -0.58470054017438722 3.2748514148929955 231 231 255 277.696564 217.976868 6
-1.0298269262175213 -0.98030924868388225 3.8600890486521582 227 228 255 277.696564 185.131042 6
-0.32388968885352365 -0.059783644369950151 6.3739913910981247 115 136 255 361.304138 283.668549 6
0.022793338335151292 -0.49470988709600272 4.5450259389275258 178 255 158 382.206024 244.850739 6
1.4958174863325622 -0.14588778513590284 4.895015491192563 249 255 247 498.659424 277.696564 6
-0.9103155438247188 -0.14727213711599318 2.6651462062232727 111 255 69 250.822708 265.752625 6
-0.33171090312045814 0.47922434166030065 1.4663297021356776 131 139 255 301.584442 418.037842 6
-0.41008508308277847 0.45499082767611998 1.0400763909742019 255 67 99 235.892776 456.855652 6
-0.41919721629678164 0.48049200609476406 1.3717050806063478 88 90 255 265.752625 424.009796 6
0.60790146669796363 0.46910841953635762 1.8033049854412244 159 255 95 510.603363 388.177979 6
0.58464965122966572 0.30255084025367585 0.85685747863931816 105 105 104 644.972656 421.023834 6
0.46278863535331005 0.48420140211070684 1.123035498693993 255 143 154 543.449219 447.897675 6
-0.5141331482704965 0.30406855639295854 2.2570703829957108 255 160 167 295.612457 340.402252 6
-2.1298682628156826 0.32937301343433023 3.6577964753880003 179 186 255 161.243164 325.472321 6
-0.099346391610232176 0.12751033245118756 5.1466728518361018 135 164 255 373.248077 298.59845 6
1.143314326663275 -0.73418197488348924 2.758878554662719 255 221 229 543.449219 188.117035 6
-1.2292753369446845 -1.6958736917287662 5.8721639773308567 209 221 234 304.570435 176.173096 6
-1.2286526854667961 -0.7752452781012753 4.3320892937109488 255 230 231 275.904999 218.574081 7
-1.1598487756183982 -1.1054438480005204 4.2768433735938904 255 227 227 275.904999 186.325439 7
-0.95696478122809925 -0.70237476134751864 2.9523101804479457 126 148 255 257.989075 193.491806 7
-0.73248551322283806 0.34818947754273522 0.94379482987879282 174 173 255 85.9963608 429.981781 7
-0.18912264012535407 0.032073212197903406 4.1999377740389363 118 138 255 361.901337 286.654541 7
1.3792857602115458 -0.13768383824930416 4.5218933243499189 248 255 247 498.062256 275.904999 7
1.2569020050993984 -0.83749796624356609 2.5891143649721036 232 236 255 569.725891 161.243179 7
-0.87908502956554369 -0.38948325744049805 3.1601571794390289 255 227 228 279.488159 240.073166 7
0.46980799137982865 0.4873856809424032 1.1532512075255257 146 164 255 541.060425 447.897705 7
0.46921651672691567 0.48318502586123041 1.3393239535694903 255 174 182 515.978149 422.81543 7
-0.46772036998154842 0.50052127430428739 1.1737149987551891 62 92 89 232.906799 455.064056 7
-2.0130985080070998 0.18995561168231814 3.2670477937998488 247 255 239 150.493622 304.570435 7
0.50803596873264012 -0.4780453646296996 3.4887397296843297 238 242 255 433.564972 236.48999 7
0.55818523320374591 -0.56782058748729025 3.4519143733906192 236 239 244 444.314514 229.323624 7
-1.5415966149131726 -1.0553414592442547 2.9316018565121897 229 255 206 182.742264 146.910446 7
-1.1274804515788466 -2.0999282425260262 6.098157415530765 255 197 214 315.319977 157.659988 7
-1.3394090973973491 -1.962707023131371 5.4355074260052616 227 255 193 290.237701 150.493622 7
-1.6372782262080525 -0.30521816308541583 2.934631539870566 242 243 245 168.409531 247.239532 7
-0.9054042177249686 -1.3934687150832681 4.7559019170441434 208 221 234 304.570435 175.575897 7
