ply
format ascii 1.0
comment Written with hapPLY (https://github.com/nmwsharp/happly)
element vertex 142
property double x
property double y
property double z
property uchar red
property uchar green
property uchar blue
property float ix
property float iy
property uchar octave
end_header
0.76453263284207473 -0.3126776312730864 2.9661957900367808 241 243 246 484 246 0
-0.24437724668012706 -0.053536888690561057 0.96336398994331196 151 255 115 286 265 0
1.1941929020468567 0.58672524293111017 1.8119957016113757 118 117 255 637 412 0
-0.28689450292869134 -0.15553525340134189 1.0067442718501605 214 255 228 274 229 0
-0.51219248889721314 0.50340772827149127 0.71898356359708293 255 127 138 111 556 0
-0.44190468503932712 -0.39005421782485394 0.96560745509571477 196 211 226 208.800003 135.600006 1
0.14789813969526122 0.6541991390757389 3.4765305975170504 163 255 152 402.000031 361.200012 1
-0.39887632816840402 -0.055135290978062412 0.96022473633117178 255 91 105 223.200012 265.200012 1
-0.30356676963396367 -0.39506433105027772 1.0292539080850176 255 181 203 271.200012 139.200012 1
0.13156249538124554 0.01655949810868082 5.260747756777981 159 171 186 392.400024 289.200012 1
1.3267287734887518 -0.23992393011149843 1.6449892860641402 255 211 223 691.200012 231.600006 1
1.1907280734915346 0.50573520077275791 1.6042400483759733 113 113 255 669.600037 409.200012 1
-0.47267516831566425 -1.8511644003355783 3.6698058303268377 168 255 120 334.800018 93.6000061 1
-0.32068888979987964 -0.29967005289537596 1.1358109079565057 198 255 228 274.800018 186 1
-0.95935485532061016 -0.60526214928981248 1.4175028519367814 255 226 227 123.600006 123.600006 1
1.4062706280360027 -0.049703047995175526 1.670604985487091 80 144 170 708 277.200012 1
0.55751658839114904 -0.65069534848666422 3.5562359587309365 108 136 255 445.200012 217.200012 1
0.15998168190836703 -0.011897317692529885 5.3741008992860131 193 255 167 394.800018 286.800018 1
0.47469217455670032 -0.49162237581658541 3.4697080517778014 255 144 163 435.600006 231.600006 1
-0.93265330056508144 0.23519533143893973 1.8342655420144993 186 199 255 189.600006 337.200012 1
1.3758275341214161 0.059296706961184525 1.6254695793408453 127 155 255 709.200012 301.200012 1
-1.4495005493105677 -0.11583974675970471 2.8167527923017373 245 247 255 185.76001 273.600006 2
1.3889643219473387 -0.25388510057908031 1.7584175966006148 214 227 255 689.76001 231.840012 2
0.25268906305491479 0.52379872070770894 2.0983959750505079 107 116 123 432.000031 383.040009 2
-0.96121381093854774 0.2410992041050305 1.8949802227351293 200 203 212 188.640015 338.400024 2
1.351239031260643 -0.81430604081543834 2.0308870893160371 191 207 226 636.480042 135.360001 2
-0.27125741545774806 -0.14882753484369915 0.94589182098405367 233 238 255 273.600006 228.960007 2
-0.95994498946154705 -0.40295142979484688 1.0422155817470853 22 38 60 28.8000011 139.680008 2
0.90718877221519167 -0.43866494848078985 2.1454669222109768 225 233 240 548.640015 208.800003 2
0.81830132340539941 -0.66107352689469989 3.3449367323999946 243 255 236 478.080017 214.560013 2
0.7423041837861013 -0.31117948710257698 2.8789483405961533 255 241 243 483.840027 244.800003 2
1.3992787104323652 -0.25316066550203464 1.785581743719141 224 255 187 686.016052 231.552017 3
-0.44041056820643032 -0.3821096250532876 0.95649154823167493 213 227 255 209.088013 136.512009 3
0.31160666116183999 0.51488037725888447 1.1207018022934956 221 221 218 492.480042 461.376038 3
-0.54156417417829328 -1.4037667652057746 3.4974579799673888 88 112 255 321.40802 136.512009 3
1.1069839328909183 -0.56242543362277275 2.6222231864702588 255 226 233 547.776062 209.088013 3
-0.52202477743046494 -0.044039123226873089 1.1282712674180799 255 109 120 207.360016 273.024017 3
-1.4997028365495542 -0.1185164941346466 2.9118663593377754 244 244 246 184.896011 273.024017 3
-0.50772133757173776 -1.9326325546807204 3.8904071235118876 154 174 255 333.504028 95.0400085 3
1.4223896109412981 -0.05667408476131236 1.7072296766753645 171 255 79 706.752075 276.480042 3
1.3386697659459088 -0.11741208523507091 1.7079764327456468 180 255 112 686.016052 260.92804 3
0.74104052437598211 -0.31778356574004585 2.8916389171059347 255 241 243 483.840057 243.648026 3
-0.93059897593468488 0.5619976557848545 1.1078035619438702 158 170 160 60.4800072 483.840057 3
-0.93608588862628306 0.2068747888655022 1.2962580883083472 120 132 255 105.408012 350.784027 3
-0.95379568668614567 0.23996482635830058 1.8795353857904784 171 177 192 188.35202 336.960022 3
0.15039895460782149 0.66078167499023244 3.553670025201181 163 255 152 402.624023 361.152039 3
19.250880729763747 -31.410680483214644 58.748184915539099 169 191 216 508.032043 84.6720047 3
0.25118145675244197 0.29455502818626583 3.4585757596158091 153 164 160 412.646454 317.260834 4
0.11526434198883928 -0.0022784883237047526 5.5893462487236434 255 154 166 391.910461 290.304047 4
1.4134395564831248 0.15882516554531051 1.5955001342139834 110 138 255 725.760132 327.628845 4
-0.9005552327945674 0.49359364520185423 1.2068316822988083 51 47 255 93.3120117 443.750458 4
-0.93223229285045939 0.41881192205929529 1.2054277632290544 52 48 255 89.1648102 420.940857 4
1.2405414448295389 0.55724384498555435 1.4168607906258455 13 22 255 717.465698 439.603271 4
1.3091663985097466 -0.22785059189172951 1.6363200618622331 191 209 224 688.435303 232.243225 4
-0.90688892212164873 0.3602368233166876 1.0214366700667283 255 37 39 43.5456047 420.940857 4
0.55459263650614754 -0.61968789186062856 3.4137292581668088 108 136 255 445.824066 217.728027 4
-0.30406342635133665 -0.29775243299106136 1.1558125039414633 107 126 149 284.083252 186.624023 4
0.51045618636823242 -0.51916295389158029 3.3911661001891797 255 111 142 439.603271 228.096039 4
-0.49921414126226615 -0.040877659486827089 1.0765147497801988 118 138 255 205.286423 271.641632 4
-0.32838597843886985 0.43410317258628761 1.0318134777875283 255 28 33 259.200043 447.897675 4
-0.10605988676704925 0.55583884638465864 1.0369210602055752 228 229 229 344.217651 493.516876 4
-0.37449965809907582 -0.051648595499912492 0.8788456060131753 255 90 104 223.948837 267.494446 4
-0.29524830796795687 -0.16081220619910591 1.0292333620366296 233 238 255 273.71524 228.096039 4
1.3140735855291101 0.089191495366408968 1.5775953447553315 124 152 255 705.024109 308.966431 4
-0.91580631108789579 0.20414714948789453 1.2580555823564934 120 132 255 105.753616 350.438446 4
1.2290223520818784 0.42504649963018215 1.471003080533074 38 255 13 702.9505 400.204865 4
1.1789576068572836 0.46318619777633846 1.6945058529926902 138 167 255 649.036865 393.98407 4
1.1465571528933756 0.39838866682294999 1.7226014449550204 198 255 191 638.668884 377.395264 4
-0.50798064265069343 -1.9054368696242259 3.8341913885786134 154 174 255 333.84964 95.3856125 4
-0.25397573981449995 0.42612932725636921 1.1867058848621359 61 85 255 301.086761 430.479431 5
-0.90930637227533984 0.47215095050809097 1.0517914100261816 255 169 178 47.2780876 457.850952 5
0.91715652700406458 -0.54220424174777204 2.8271395042236174 242 255 232 510.105682 213.995544 5
-0.46468608054833593 -0.40333581751897984 1.0177774716563763 212 227 255 209.018906 139.345947 5
-0.45965680143440668 -0.47519577452229234 1.00367376792674 255 171 195 211.507233 109.486099 5
-0.54408873108216627 -2.087820617610733 4.1918892371522398 149 171 255 333.434937 94.5561752 5
0.97179721635468996 -0.34729074331627918 2.739086995502535 239 241 245 520.05896 241.367081 5
0.69951704550231675 -0.31527605446275697 2.7255970171284787 243 246 255 485.222473 241.367081 5
-0.93071420855469134 -0.03346974779108064 1.0752827557277929 216 216 255 49.766407 276.203552 5
1.218255644772134 0.24887609782655606 2.2370955355177609 102 133 150 592.220215 328.458282 5
-0.26053157498839319 0.25943732983444789 1.0639660264993722 255 42 70 291.133484 383.201324 5
-0.37617696007420198 0.28454579147952985 1.0708833371863431 225 227 228 248.832031 390.66629 5
-0.52211200568298288 -0.03537740630719044 1.1147972045067953 140 255 106 206.530594 271.226929 5
1.3961447793524169 0.1290489738560015 1.6137909651276425 255 59 131 711.659607 320.993317 5
1.3568980142466112 0.087293716795700652 1.619596888855118 153 255 51 706.682983 308.551727 5
1.1757034450173942 0.46404181572839392 1.6955270791849273 163 255 117 654.428223 393.154602 5
1.2862275059073534 0.2998695810008139 1.5616785340324357 148 169 191 704.194641 365.783081 5
-0.93590644177933058 0.20915698794330112 1.286774402342906 125 123 135 104.509453 350.85318 5
-0.10908828659548009 0.58218203324018392 0.92881909453012401 233 255 231 338.41156 525.035583 5
-0.12057001449619209 0.5221909174166105 1.024912613220355 62 255 35 338.41156 485.222473 5
-0.33747645707305463 -0.21024650093264657 1.2880506883165497 255 116 135 283.668518 226.437149 5
0.26332281495415355 0.4624290659975368 3.0122153989382205 180 255 145 418.037811 343.388214 5
-0.13476366683605523 0.021801775587551142 2.5865101466909941 114 135 255 365.783081 296.110107 5
1.236991391707591 0.5317543940107865 1.403932791015337 255 1 10 719.124573 437.944397 5
0.31346832256169899 0.5207871022543229 1.4998833805819469 183 191 255 465.315918 420.526154 5
1.1865757128755687 0.4876627260955162 2.1118093097318349 193 255 166 602.173523 378.224701 5
0.12799981534000127 0.5394121671429597 2.817709119618967 255 154 166 403.10791 360.806458 5
-0.90305521242409803 0.48586980546987552 1.1989231945246104 255 81 82 95.551506 441.92572 6
-0.44289922940838888 -0.3893507746793754 0.9707567424803405 212 227 255 209.018921 140.341278 6
0.95176875955649054 -0.33193157301080789 2.6828208794028887 255 239 242 519.56134 241.864746 6
1.1721325229430319 -0.6767806693672952 2.0116257725050897 223 233 255 609.140869 161.243164 6
-0.4309707308020112 -0.060799374620879837 1.0979084202515699 106 131 255 229.920807 265.752625 6
-0.30264932147448764 -0.28870529773510201 1.1290572310610099 255 104 124 283.668549 185.131042 6
1.3298112994712836 -0.28947116125311678 1.7007113056866077 123 159 197 680.804504 226.93483 6
-0.52211200568298288 -0.03537740630719044 1.1147972045067953 140 255 106 206.032928 271.724609 6
0.57578475920942229 0.36211734649122818 0.95596100237625814 219 218 255 621.084778 435.953735 6
0.71863486368729168 -0.59560747814037285 3.0011308769926215 255 237 240 471.785553 214.990891 6
-0.10710333220575596 0.55773906909262561 1.0538943722454399 255 187 189 343.388214 492.687439 6
-0.98059091118819275 0.24424494766465821 1.92392916065383 234 235 255 185.131042 340.402252 6
-0.2560206071949267 0.46031968149029512 0.78474109282886184 233 234 233 256.794678 516.575317 6
0.094102174495221957 0.029032949928694235 5.386931205974717 255 155 167 391.163971 289.640503 6
-0.63175123617634066 0.58316715745085124 1.3720985724877703 255 121 131 203.046951 453.869659 6
-0.61981498536136126 0.2104474873633847 1.2912091246429727 176 255 153 206.032928 352.346191 6
1.3459603833965663 -0.078013482510332133 1.6230298212589886 189 255 99 698.720398 271.724609 6
-0.26732590110822496 0.45365041379700066 1.2202740955192777 61 85 255 301.584442 429.981781 6
0.31661855075824596 0.51008735585877429 1.110828410770484 255 213 212 495.673431 462.827606 6
-0.63335485000543024 -1.0739394133342741 4.1356993040714034 125 255 64 322.486359 189.90863 7
-0.26106184312604386 -0.40119381860262715 1.0259226893931799 255 56 84 283.07135 139.74408 7
-0.30342370943558539 0.29599549169689082 1.2815151156157212 94 255 43 290.237701 383.400421 7
1.09860338944612 0.44026214648703249 1.5472935973069539 117 134 163 652.139038 394.149963 7
0.77515171831847596 -0.66808818579942053 3.4127809937107374 237 239 243 472.97998 214.990891 7
-0.4452685034673638 -0.06584953446057995 1.1185451188155691 106 130 255 229.323624 268.738617 7
0.25269356788851205 0.49288412387347857 0.95555360312905924 255 219 218 483.729523 490.895874 7
-0.2107855920098789 0.23161982564803146 2.5398603699859965 255 93 115 351.151794 315.319977 7
-0.93669057498728359 0.24381975184281113 1.7921097016970045 231 255 224 182.742264 340.402252 7
1.1621905880496917 0.56213010603811275 1.4411123584752481 255 4 13 691.554077 437.148163 7
-0.90267000451989032 0.029398312551603994 1.0870388274061304 135 137 147 68.080452 300.987244 7
-0.51953927265310362 0.49619862700828199 1.0896213801352528 125 136 155 200.658173 455.064056 7
0.36258232831162962 0.3386398704797759 4.464822728617948 255 150 164 415.649078 315.319977 7
1.3563731287452865 -0.22609855856245181 1.7343630703692616 255 184 204 687.970886 236.48999 7
-0.20436231883022082 0.37862845048015698 1.2981452840423424 88 255 47 326.069519 404.899536 7
-0.89443586197494795 0.48024871556218673 1.1863424222569372 88 87 83 96.745903 440.731354 7
-0.50063617890910717 0.45376299054199937 0.79696133047019435 255 235 236 143.327271 505.228607 7
-0.11568793797639598 0.56779547158157406 1.0838079245665462 255 106 107 343.985443 490.895874 7
-0.2418193425139612 0.41216454636995703 1.1131479337825128 38 65 86 300.987244 433.564972 7
1.2765080591017735 -0.66542369452091754 1.9373631062298591 220 232 255 641.389526 157.659988 7
0.95179148467828978 -0.35135678207459997 2.7424138075919613 255 239 242 519.56134 240.073166 7
0.46478628670814093 -0.51673074235769634 3.648312985987805 164 186 255 433.564972 232.906799 7
-0.49367769733639211 -0.43857827104856106 1.147223137850736 255 198 212 211.407715 139.74408 7
-0.49170414007146457 -0.51448536066884154 1.1310301557120117 219 255 172 214.990891 111.078629 7
-0.57176324848836124 -1.4221014919584474 3.5075641244465769 255 110 129 315.319977 132.577713 7
-0.42419744614929167 -1.5503898128754672 3.1163579265966472 158 178 255 333.235901 96.745903 7
-0.53664520741009492 -0.045043610480714064 1.1285134909551067 115 125 144 204.241348 272.321808 7
