ply
format ascii 1.0
comment Written with hapPLY (https://github.com/nmwsharp/happly)
element vertex 119
property double x
property double y
property double z
property uchar red
property uchar green
property uchar blue
property float ix
property float iy
property uchar octave
end_header
-0.55393165991227944 0.3089010880415799 0.70113181502528865 255 57 87 79 457 0
-0.56120050034930902 0.3310378590531487 0.70912235267928214 255 131 142 79 469 0
-2.3024333893141256 -0.10956621687755458 3.758847113364097 255 238 239 151 277 0
-2.4891367155378008 -0.20592999468201545 3.9749481823282373 239 241 255 145 268 0
0.86251381535665805 0.17303907461577989 2.3017003654553707 99 121 255 529 319 0
-2.3108645216523227 0.16646858074424031 3.626194957645561 255 222 216 139 304 0
0.40871556711860557 0.28810065385482597 0.46458694501121811 210 208 255 721 526 0
-1.4933947403707348 -0.76457701623436303 6.1945568520835756 138 152 168 292 241 0
-2.2566465769376531 -1.1239296769278326 3.6369318209329298 217 226 255 145 169 0
-2.2458334407099443 -0.51730382977410194 3.6265245576779446 235 238 255 145 235 0
-2.1678938948619213 -2.2544186377925715 3.5971850912911121 255 100 135 151 46 0
-2.2738273962946294 -0.37164997023257984 3.6601070354129965 239 255 233 146.400009 249.600006 1
-2.0621070390162246 -1.1182772511586641 3.6169189252542147 212 223 255 165.600006 169.200012 1
0.066527650725028087 -0.31591150106845489 1.1334483032718223 224 255 192 406.800018 181.200012 1
-1.5148768526502794 -0.2213441054052156 3.6977637542873389 81 96 255 225.600006 265.200012 1
-2.072697102467659 -0.36455769967098078 3.6154086536940313 255 235 236 163.200012 250.800003 1
1.1548609960017098 -0.42715643102808726 3.3923705300774003 93 117 255 513.600037 241.200012 1
-0.54931874808254655 0.40797080871467045 0.65262646697025528 149 145 255 61.2000008 529.200012 1
-0.54756816470133307 0.3953137563269089 1.3537448087847552 207 205 255 229.200012 398.400024 1
-1.5446397148862214 -1.5130234361679895 5.7932464286495229 255 218 223 279.600006 186 1
-0.5251063512519103 0.42160365126441346 1.9294654449961217 255 189 193 279.600006 372 1
-2.0392217573434994 0.093717849598248137 4.4491900518285039 255 80 98 207.600006 295.200012 1
-2.2915387461782117 -1.1452152591570357 3.6951617144592634 217 226 255 145.200012 169.200012 1
-2.1263546301522971 -0.27765386146472643 3.6387591331403426 255 238 239 159.600006 259.200012 1
-2.0810263943993159 -2.341539900676628 3.5903067521581797 255 97 131 159.600006 39.6000023 1
-2.3588422356523635 -1.5717858139414382 3.7902362887543353 201 215 255 145.200012 129.600006 1
1.0454128957234881 -0.91053666823399326 3.373310298950813 219 229 255 505.200012 183.600006 1
-0.56126821512523262 0.33167403324210148 0.70967049229881407 255 131 142 79.2000046 469.200012 1
1.1526032707183513 0.089603515135403294 1.5261354407129173 114 255 95 674.400024 312 1
0.5448400223185127 0.28402275235839036 1.2663340480268594 50 93 255 549.600037 373.200012 1
1.1780628378033593 -0.80664271257868581 3.4770409596110472 205 217 230 516.960022 198.720001 2
-1.3274554422799669 -0.5694661351543171 3.5559803525894482 218 220 219 240.480011 226.080002 2
-1.5807472409376722 -0.60537832023546168 3.75425320235128 255 78 91 223.200012 228.960007 2
-2.1172438367005442 -2.2809623408968007 6.805685610992195 184 200 218 264.960022 159.840012 2
-1.5178552853925065 -0.74765292872301958 3.6305091015173381 255 70 88 223.200012 208.800003 2
-0.98114326151260656 0.29184123888862779 1.3599700570907829 132 134 255 109.440002 370.080017 2
0.43707875807512186 0.28749148453965589 0.55155485996624942 212 211 255 685.440002 486.720032 2
-1.6256164166865217 -0.19596291098719276 3.7409180431653635 60 80 255 217.440002 267.839996 2
-2.2848196415839466 -2.203658084041809 3.7575795233463616 255 127 152 151.200012 63.3600006 2
-2.0327972391239495 -1.338492739502448 3.6893126608739513 189 201 217 172.800003 148.320007 2
-2.137655491698959 -1.6123212882240217 3.7202027730767426 185 196 212 164.160004 120.960007 2
-2.1934911847617338 -1.8060910847591087 3.6143623154656508 255 146 169 151.200012 96.4800034 2
-0.54832107560354526 0.30307832526473577 0.81290313206647458 190 255 190 126.720001 430.560028 2
1.2400046159605904 0.36622909036960266 1.455898257236232 114 255 78 710.208069 387.072021 3
-2.4255319367721757 0.16663638946436282 3.7576137768578954 223 218 227 136.512009 302.400024 3
-1.5928398280491485 0.074811003531868314 3.4677371436732183 255 80 98 207.360016 295.488037 3
-0.61056689001519038 0.30152987927032421 1.2789774798558364 255 41 77 203.904022 376.704041 3
-1.9184349137682153 -2.0524032254316991 6.1872346776339509 187 202 219 264.384033 160.70401 3
-1.5344961908603216 -0.18702106885944358 3.5564953497684151 48 67 86 216.000015 266.11203 3
-2.1167772585682152 -1.0937512756119547 3.6631797129039114 223 255 203 162.432022 169.344009 3
-2.2536572155015415 -2.1892203565869419 3.7061112318958487 188 255 124 150.336014 62.2080078 3
1.2492888586643491 -0.081339845526137669 1.3731834947439159 243 255 241 730.944092 264.384033 3
1.0550595197971804 -0.7239837613416813 3.0706350959825959 205 217 230 516.672058 198.720016 3
0.30364295605001229 -0.41417699734139535 1.1646620726238588 203 218 255 485.568054 148.608017 3
-0.57214124364443508 0.33705652576231399 0.72123542220607995 255 136 143 79.4880066 466.560059 3
1.2613168998567434 0.046923914270860442 1.389961938749545 235 239 244 732.672058 300.672028 3
0.093818152180563774 0.073568085192052352 0.52500921305985626 45 49 55 456.192047 342.144043 3
0.55839715209375607 0.28964701797769754 1.3021360157441135 77 106 255 549.504028 371.52005 3
-2.1519577027114583 0.10014737238678006 4.0544898425473566 233 237 243 180.403229 298.59845 4
-1.2149463681550161 -1.6050566171721388 4.9670699191435608 182 200 220 288.230438 165.888031 4
-1.6231017424075378 -0.20264393565998767 3.7284212936909977 255 54 75 215.654434 267.494446 4
-2.2403941108664918 -1.1320269432361303 3.6357766642943106 255 211 217 147.225616 170.035217 4
-2.1451059321776338 -0.34967274509568436 3.5172723104781811 236 239 255 149.299225 250.90564 4
-1.9602297160254061 -1.8593214471794071 3.5619920382492407 140 164 196 172.108826 89.1648102 4
-2.2276845905009623 -1.844373796181884 3.6731145168636901 255 143 167 151.372818 95.3856125 4
-2.04936904033891 -1.337032085529728 3.7224458828696929 218 255 189 174.182419 151.372818 4
-2.2405374319485345 -1.5150302908476658 3.6184905670080845 203 216 255 145.152023 126.489616 4
0.18270971933658109 -0.2521482740068236 1.1439344377132525 255 228 231 447.897675 203.21283 4
0.17537572688494518 -0.28824408019046988 1.1430921389462814 255 210 219 447.897675 190.771225 4
1.1636015082823723 -0.91317848084680997 3.3188820327775215 210 217 228 516.326477 182.476822 4
0.92105066344705366 -0.2441246240621171 3.069174271091442 125 161 255 497.664062 261.273651 4
0.26892972182972508 -0.52361009903920985 1.1662534140384819 207 255 164 470.707275 116.121613 4
1.2057471742598074 0.34588028752373423 1.6281595398848177 100 107 255 669.772888 369.100861 4
0.092815282929511356 0.044775367319881867 0.50917173789867698 130 142 160 456.192078 321.408051 4
0.16331742160915486 -0.58990790796494863 1.1802056381638533 170 200 255 437.529663 91.2384109 4
-1.8314194905766339 0.1946698205049327 3.7703671390946925 58 74 87 196.577301 308.551727 5
1.1025583191421389 0.16967182220574725 1.472568404421253 255 83 93 671.846497 333.434937 5
1.157390504471602 0.076533652167182803 1.5518272076088864 92 255 64 666.869873 311.040039 5
1.1765985251599118 -0.13083389280176441 1.5582066303194186 76 255 50 674.334839 253.80867 5
0.18270971933658109 -0.2521482740068236 1.1439344377132525 255 229 232 447.897675 201.553955 5
1.1717957709723559 -0.78775142585861957 3.4539870765679894 218 230 255 517.570618 201.553955 5
0.084739451318725956 -0.50929747167692629 1.1799598569059888 206 255 155 410.572845 121.927696 5
-1.715146878523699 -0.22125222932630878 3.8383030165006451 78 98 255 213.995544 263.761963 5
-1.3974232957194075 -0.59644203205417257 3.6858744216417501 219 255 217 238.878754 226.437149 5
0.093330492214656058 0.096728732854687569 0.49577200999038329 58 61 255 457.850952 360.806458 5
1.1358541177620602 0.31728267147832834 1.5155513323742542 104 119 255 669.358154 365.783081 5
-0.48612241976358073 0.27444772815446911 0.72021128039248183 190 190 190 124.416016 430.479431 5
0.89847090097820981 0.17665468109746893 2.4183890505654699 128 255 56 530.012207 316.016693 5
15.099675757315111 -10.86601298259645 24.535425234307667 255 61 96 619.591797 116.951057 5
-2.2403941108664918 -1.1320269432361303 3.6357766642943106 226 255 211 146.810898 169.20578 5
-1.9676058418888478 -2.07497968227104 6.3069468441434111 255 193 206 263.761963 161.740829 5
1.1842408269308771 -0.13531593305640166 1.585810618223543 68 255 50 674.83252 256.794678 6
0.18284974326416459 -0.25516638207772502 1.1307626503711006 226 229 235 444.911713 203.046951 6
-2.0429976287408387 -1.3114470190437135 3.7262766653606514 202 218 255 173.187103 152.285217 6
-2.0123125096828112 -1.4675631276648744 3.6374046722534228 198 214 255 173.187103 134.369308 6
1.1347897268428939 -0.76509242058239413 3.3634224418891452 207 218 230 516.575317 200.060959 6
1.1745006267639932 -0.87978224266921967 3.3789653053884869 210 217 228 516.575317 182.145065 6
1.4319992096947418 -0.1445800166967805 3.8084350056913854 170 181 255 525.533264 268.738617 6
0.91160771787343653 -0.25048695805419358 3.0707756447072221 162 255 96 498.659424 256.794678 6
-2.3277856457432859 -1.8291150299189014 3.7521602595129826 203 255 162 146.313248 101.523476 6
-2.1456152816087384 -2.0123828314957048 3.4808372694074299 189 255 127 146.313248 68.6776428 6
-1.7497366005327635 -1.6916337068761544 6.2802583472646063 223 230 255 277.696564 185.131042 6
0.28069355056044143 -0.50957330474709472 1.1690970146648534 189 210 255 477.757538 122.425369 6
-2.1376768523709035 -0.26190996362763219 3.8897279608905322 238 241 255 173.187103 259.78067 6
-2.0436958530770952 -0.45600959822902254 4.2119751970243131 118 255 85 194.088989 241.864746 6
-2.1368488885769832 -0.34967346346879863 3.5339252032192254 236 239 255 149.299225 250.822708 6
0.47734090510990179 0.28958090243122658 0.58534457835613263 255 209 213 695.734375 477.757538 6
-2.9758329288930385 0.18493419729640731 4.4985693654821244 242 255 233 134.369308 298.59845 6
1.157390504471602 0.076533652167182803 1.5518272076088864 55 67 86 668.860535 310.542389 6
-2.1665163671954426 -1.1326288983818786 3.7242317587106681 213 223 255 161.243164 170.201126 6
1.1678143680843744 0.44991499031959858 1.6536108046496085 255 211 214 655.722229 394.149963 7
1.48200004131568 -0.142816169151538 4.0181207698672718 164 255 153 526.727722 268.738617 7
-0.90812891237419402 -0.27653696089952784 2.4683205925519123 212 214 214 240.073166 243.656357 7
-2.2431848947657906 -0.28454715802340658 4.3248714151080598 198 255 222 186.325439 257.989075 7
1.6593230395668404 0.13919663319344211 4.3038786329211884 123 255 61 530.310852 300.987244 7
0.58046518631838673 -0.90909052083231068 4.0483313068824636 227 230 235 444.314514 200.658173 7
-2.1773886069599282 -1.1381330176090714 3.729284644146337 213 224 255 161.243179 171.992722 7
-2.4791411865019435 -2.2756853707470861 3.9657565010451536 189 255 127 146.910446 68.080452 7
1.163602353703167 -0.11374052507997628 1.4203613226707725 255 134 142 695.137207 257.989075 7
