ply
format ascii 1.0
comment Written with hapPLY (https://github.com/nmwsharp/happly)
element vertex 159
property double x
property double y
property double z
property uchar red
property uchar green
property uchar blue
property float ix
property float iy
property uchar octave
end_header
0.35510707755767279 0.1902128154502932 0.45659184058605717 87 255 66 682 448 0
0.83208404191424967 0.17922591171351995 0.88780285570248874 98 110 255 745 366 0
-2.4206104965915589 -2.5302284549766147 3.8415136237154672 169 255 90 142 34 0
-2.3449117068136371 -0.67946525961281079 3.77816706223232 228 233 255 145 220 0
-1.8336385596194185 -0.6059082668453406 3.8769905899593229 197 255 187 202 229 0
-0.16763184242132168 0.19643301149222547 0.28800074237392798 255 164 170 175 552 0
0.9599218080113705 0.15675520449427166 1.4808216146927455 83 255 72 634 329 0
-2.3172917451152406 -1.3586846289249477 3.7454798674277923 200 214 255 145 148 0
-2.4056482195469817 -1.6204083427340996 3.8660733507316358 212 255 189 146 127 0
-2.4154203408083643 -0.29238639806188166 3.8206949049007011 238 255 234 142 259 0
1.5043750900279642 -0.17645560032699842 5.1092779975210121 255 28 86 499 274 0
-0.081989460080258647 -0.03316731168107194 1.212357807468176 127 255 42 358 277 0
0.31098445659376089 -0.67885668534661103 3.6351635149274233 232 255 217 418 217 0
0.25336320764572956 -0.24540939479521354 3.6209741095768928 239 242 255 409 262 0
0.87698736307865977 -0.37228511949950049 3.4768861359334724 86 121 255 481 247 0
-0.084117133392866972 0.39189453222266424 0.84806227086824293 255 185 192 343.200012 465.600006 1
-2.4684634224839987 -0.97128031887786681 3.7119788959967854 255 220 223 127.200005 187.200012 1
0.84135672106580817 0.3233134785765403 0.95648230069372508 255 73 85 727.200012 417.600006 1
1.469221671244241 -0.18940313015912241 4.9801280542321837 255 31 83 499.200012 273.600006 1
0.96119332093229515 -0.18480725220514072 3.5824701254313598 255 23 78 487.200012 267.600006 1
-2.5249965618015993 -1.8619008571205535 3.85460887847296 199 255 159 134.400009 103.200005 1
-2.5027809934975296 -2.1729642702733734 3.8396196605055213 180 255 107 134.400009 69.6000061 1
-2.7142867463871463 0.16636762544445172 3.9621232017072794 213 201 209 120.000008 303.600006 1
0.84043810934716967 -0.069748778748008708 0.90846477428746408 239 239 241 744 258 1
-0.16522660818662027 -0.52789892758078072 1.3045982919831975 171 203 255 337.200012 133.200012 1
0.83543542780632896 0.38951415686759799 0.93719301512999209 255 22 28 727.200012 447.600006 1
-0.069841326042422103 -0.24598147844674007 1.2118742881135744 136 255 77 362.400024 210.000015 1
-0.069511799817193798 -0.28931174154854278 1.2142858849291607 124 146 255 361.200012 199.200012 1
0.93583976612191266 -0.10119153156457167 1.4874468211542877 69 81 255 625.200012 261.600006 1
0.01683193407078909 0.39349290179179314 0.76520460313103345 255 77 89 391.200012 483.600006 1
-2.3349829813466503 -1.0729863260253267 3.7607729269248913 215 219 226 144 177.600006 1
-2.4443335145109031 -1.1107866936213728 3.6961160027512578 222 227 255 129.600006 171.600006 1
-2.2274198202734876 -1.2345782625708237 3.61498099475553 201 215 255 145.200012 157.200012 1
0.064288002300693814 0.27160238770654477 1.2998645120930539 255 80 94 403.200012 367.200012 1
0.86309813921428113 0.27282840718787144 1.6167096477536333 87 106 255 589.200012 354 1
1.6093234101129392 0.19086647495309791 5.1736851582864247 73 102 255 505.200012 303.600006 1
0.018862463769830085 0.40408601903865482 0.58896857170255701 79 105 255 397.200012 549.600037 1
-0.08752543930513712 -0.21176785919112673 1.2022199348686093 101 123 146 356.400024 220.800003 1
-2.5351340733040364 -0.3851102157452807 3.8024703688696033 230 233 236 128.400009 249.600006 1
0.31012026025701461 -0.76298140951759919 3.4665560207038619 209 218 228 416.400024 201.600006 1
-0.13996074590565977 0.3370982813650103 0.50492219297793406 150 152 255 277.200012 543.600037 1
-0.10666379977094431 0.40686715762620135 0.73366259989550686 255 180 186 327.600006 502.800018 1
0.24488866002044057 -0.24378601372694689 3.6130733297506015 238 239 242 408.960022 262.080017 2
-2.6739800549751189 0.15851690746494407 3.8885355340440664 211 255 214 118.080002 303.840027 2
0.95786011450310227 -0.18346643496447762 3.5609011259627321 106 255 22 486.720032 267.839996 2
-2.3198564842899434 -0.37756096132492589 3.735223984562225 230 233 236 144 250.560013 2
-2.2835207553848056 -1.3374017316490696 3.6834382203748985 189 200 214 144 148.320007 2
-2.3973642575478493 -1.3773751904619189 3.6244816475343331 200 214 255 129.600006 142.560013 2
-2.5126282421321169 -1.6860844743647063 4.013048187280682 198 212 255 145.440002 126.720001 2
0.50792364653610333 -0.2453213396769402 3.6150746009817096 255 59 93 439.200012 262.080017 2
0.20856595524502697 0.36762339910417563 1.8011583227449501 191 255 173 426.240021 364.320007 2
0.31729915613717896 0.193004995880836 0.68184010008743934 255 86 104 563.040039 396.000031 2
-2.403509949932797 -0.76248132118819179 3.851396830371304 220 224 231 144 211.680008 2
-0.17016950272174991 -0.53194252597766645 1.3190022132148465 142 170 203 336.960022 132.480011 2
-2.4894783762978832 -2.3545441078460705 3.775694399986985 129 173 255 129.600006 50.4000015 2
0.0096839737267028214 -0.50537262888703471 1.2447582490742422 255 139 169 387.360016 132.480011 2
-0.079138555688285206 0.34502953610355619 0.99081265365900983 174 255 150 354.240021 421.920013 2
-0.080472150457064684 0.0051410563756938976 0.92094183570118648 84 98 119 348.480011 290.880005 2
0.30057993510813319 0.18938404236854683 0.45129596025293295 105 255 78 642.240051 447.840027 2
0.83909802265902877 0.27407568814985372 0.94855192249207687 103 124 255 725.76001 398.880005 2
1.2649294148176096 0.26186733571910681 3.2906029962361871 35 74 95 528.480042 319.680023 2
-0.072820305842464239 -0.62284982143153977 1.351064856650124 196 255 140 362.880035 110.59201 3
-2.4074874236137855 -0.25646131337820904 4.8596532694684793 53 68 83 196.99202 266.11203 3
1.4646669199264415 0.16297650977098666 4.6306971486505306 109 255 22 506.304047 302.400024 3
-2.0667049999155331 -1.968164225806128 6.0511041892389219 218 255 190 250.560028 164.160019 3
-2.2760029131750343 -0.24320926483659167 3.8062297852037856 237 239 255 153.792007 264.384033 3
-2.3920659578068739 -0.35938941181944362 3.6394088592018092 233 237 255 129.600006 250.560028 3
-2.5292072017385969 -1.88159335881919 3.8739839454393454 172 198 255 133.056015 101.952011 3
0.87549958472613665 -0.12263939117434022 1.5305083186218389 255 85 95 603.072083 257.472015 3
0.88661757411140307 -0.13972756991296226 1.6609155407044143 169 166 255 589.248047 255.744019 3
0.44524807188027221 -0.93252693421245048 3.5081399163806717 100 131 255 433.728027 186.624023 3
0.87989272984934397 -0.89627997118477776 3.3666653496069876 112 255 26 482.112061 183.168015 3
0.23661873424739455 -0.25472375586203833 3.6116780993250792 255 237 238 407.808044 260.92804 3
1.5545398179346179 -0.19905671037122155 5.3297776305269267 84 111 255 497.664062 273.024017 3
-0.092392015627231983 0.40274765871059515 0.8796322359706038 195 255 194 342.144043 463.104034 3
-0.18714186529618992 0.033056708351454071 0.63907876113657203 255 25 40 279.936035 309.312042 3
-0.15170701251922625 0.10947734227004159 0.41052976478608927 255 202 206 243.648026 392.256042 3
0.98594712413066077 0.036926550818237786 1.525776397382459 84 255 67 634.176086 297.216034 3
0.86411668766035077 0.078699544417126552 1.6329634591774402 101 120 255 585.792053 304.128021 3
0.9518626500103875 0.39350893630983114 1.4810292327737697 93 255 74 630.720032 390.528046 3
0.98240684536541067 0.37241586351842543 1.3956684632403187 255 199 201 651.456055 388.800049 3
-2.1881165590372005 -0.87078314281935087 4.4949802260480674 66 82 102 196.992035 213.580826 4
-2.4637669510961917 -1.1585578600547624 3.9187775006960228 255 215 219 143.078415 176.256027 4
-0.17840863418305808 -0.50265811851095854 1.2752492063394081 255 146 173 331.776062 136.85762 4
-2.7031435409183016 -2.5393959888177675 4.0654806150014746 172 255 94 130.636826 47.6928062 4
0.89147407063065076 -0.14109509409611107 1.6775401139604234 145 255 163 590.976074 257.126434 4
1.3470671959714728 -0.16714775559493827 4.5137499992052179 84 111 255 497.664062 273.71524 4
-0.098255946465358401 0.4093616523467738 0.8986374536608408 193 198 195 344.217651 462.412872 4
-0.072248396780035251 0.3396448931009744 0.95931182964583672 174 255 153 354.585663 420.940857 4
-0.084500094274604365 0.38172793148584905 0.74072199694342022 184 188 186 340.070435 483.148865 4
-0.1466483945632997 0.11025692192747923 0.36938439284876695 204 255 202 230.169632 406.425659 4
0.30052586720946967 0.18845497163605043 0.44676745980839427 111 255 77 638.668884 449.971252 4
0.32139917249132444 0.21438482423539806 0.45329954587516663 220 220 255 657.331299 470.707275 4
0.86389089757767312 0.062757903869362974 1.6405695432516316 119 255 85 586.828857 302.745636 4
0.86846449109380441 0.19567977958622362 1.0184311518723896 255 137 144 707.097717 362.880066 4
0.28189153645237686 0.13065773949316994 2.0954893237580019 197 196 255 433.382446 313.113647 4
-2.8300249943635252 -2.3470919159902435 4.2384541026160507 141 180 255 129.392654 74.6496124 5
-2.6525914173002572 -2.49504332895537 4.0011842014069074 255 94 128 131.880981 47.2780876 5
0.83600648163325209 -0.72857046048629936 3.2861125499607646 88 255 23 482.734161 204.042267 5
0.94404046745605397 -0.18945445313960463 3.4520480842824561 255 23 80 487.710785 266.250275 5
1.1855171519166983 0.46179133949472023 1.7385548528593207 202 202 255 649.451599 390.66629 5
-0.091505071412174566 0.0075389307389719107 0.94962640873549842 99 120 255 345.876526 291.133484 5
0.88216201245878489 -0.14081676896156173 1.6549935415689665 122 128 127 592.220215 256.296997 5
-1.7570583246393934 -0.73047692787733509 3.72372631004133 255 114 125 199.065628 216.483871 5
-2.6787238349161901 -1.2445831620854202 4.2228988876022129 217 225 255 141.834259 174.182419 5
0.86261503436046327 0.063735960886897827 1.016794882258506 134 255 191 706.682983 316.016693 5
-0.18434552782348934 -0.51033761540353051 1.2938345327166414 203 255 146 330.946594 136.85762 5
0.43421426999041379 -0.87344578991704147 3.3299347273889235 85 112 140 432.967743 189.11235 5
0.071638410785444251 -0.10640961712519663 1.484132442884921 236 240 255 405.596222 258.785309 5
-1.6710177571720619 -0.59834920973490802 3.820975642958214 214 255 213 218.972198 228.925476 5
0.0011133640067897965 0.35111013344544384 0.73697257264251215 255 73 85 383.201324 467.80423 5
0.85506358290709206 0.065521360838870446 1.614271241767846 255 86 99 587.243591 301.086761 5
-2.5071868516195415 -0.5416789049391475 4.7561163206273296 99 255 55 186.624023 243.855392 5
-2.3920659578068739 -0.35938941181944362 3.6394088592018092 232 236 255 129.392654 248.832031 5
0.28007623693794104 0.36107675812653578 1.1728024558242414 94 255 104 470.292542 405.596222 5
-0.17477856880170484 0.03037068590765709 0.62587589683024236 42 65 255 281.180206 308.551727 5
0.019106986019737704 -0.47609219394653679 1.2239811765955524 205 255 149 390.66629 139.345947 5
-0.0090214508386894376 0.38400387629363048 0.80797704664011483 106 255 68 382.206024 468.799591 6
0.95574179258248138 -0.18603447356167183 3.5493186046732914 111 255 22 486.715485 265.752625 6
-2.3588920200537831 -1.1153959995523377 3.7595824601778642 255 215 219 143.327255 176.173096 6
-0.024506957270131857 -0.57470444306993784 1.3052087521153346 255 147 170 379.220032 119.439384 6
-0.16603134097131567 -0.54901936057868694 1.3074762691822077 139 166 199 340.402252 122.425369 6
0.86363863086747283 0.062739748891992533 1.02561669659909 187 130 128 704.692383 316.514374 6
-0.13597068303245829 0.23187718567976628 0.500329487388669 173 179 175 280.682556 468.799591 6
-0.080504923068437817 0.0040151226725142538 0.92379610294359482 121 255 86 346.374207 292.626495 6
-0.1363719317669565 0.017798226811704287 1.0860124351950931 85 99 120 340.402252 292.626495 6
0.88216201245878489 -0.14081676896156173 1.6549935415689665 120 255 98 594.210938 250.822708 6
0.86617756331900464 -0.13373228314209196 1.5935372420662377 255 142 147 591.224915 256.794678 6
-2.0435565525910659 -1.7419779810032172 3.4399918904191313 255 141 163 155.271194 98.5374908 6
0.84113338443539964 0.068279649504481843 1.5911150970862169 95 115 255 585.252991 301.584442 6
0.90210249758556937 0.33102014670253183 1.4844615656776241 123 255 102 618.098816 370.262085 6
0.84887893406868609 0.18644091625892045 0.99931365892567658 154 164 164 704.692383 361.304138 6
0.69111344023679633 -0.26982488138445659 3.4852866717444599 120 255 38 462.827606 256.794678 6
0.21108068391792867 -0.23184949613390315 3.0406565910764605 240 255 235 406.093903 256.794678 6
-0.087035209957055271 0.39712862552943728 0.87862942372862951 255 193 198 343.388214 462.827606 6
-0.093597122353960005 0.35998086415678276 1.0291978302660891 163 171 174 352.346191 421.023834 6
-0.16651347660916571 0.081960881887039705 0.61463289660270126 199 198 194 280.682556 340.402252 6
-0.16937104343534048 0.030146452032597644 0.61828221912035619 28 45 68 280.682556 307.556396 6
-2.6753261774963319 -1.8934244242834704 4.0188248010381367 172 184 203 128.397339 107.495445 6
-2.4780813714951648 -1.1325625606862828 3.7490506407085875 222 224 229 128.397339 173.187103 6
-0.10103816312351754 -0.26428024588979188 1.2879440123599055 144 255 95 358.318146 209.018921 6
-0.085522386850902299 -0.25819015653129107 1.2298164259189233 142 255 71 358.318176 207.824539 7
-0.1728691829583201 0.35135919524919518 0.6101356609462858 255 148 154 279.488159 501.645416 7
0.83735438815098751 -0.72915623081946457 3.3008737658828546 23 60 86 480.146332 204.241348 7
-0.069797345319271398 0.22651990655633908 0.98979340294195439 176 255 162 354.734985 379.817261 7
-0.043800168803265871 -0.60226439109606822 1.4459082075187768 140 168 201 376.23407 128.994537 7
-0.15127905222336768 -0.56882243539837829 1.3116502730170714 138 166 199 340.402252 121.828178 7
0.95574179258248138 -0.18603447356167183 3.5493186046732914 255 24 83 487.312714 265.155426 7
0.93692152616800106 0.33396075660571695 1.5623280244957338 97 99 116 612.72406 372.650879 7
0.77436355773784282 0.25573941299321756 1.4309905362343278 87 94 110 584.058594 358.318176 7
0.053080792516391084 0.39559355830084564 0.77607703021356578 88 100 118 412.065887 483.729523 7
0.86126862158687234 -0.13309939593542297 1.5993357042917313 255 142 147 591.224976 257.989075 7
-2.3671079250552278 -0.97552443998418681 4.9453491377817489 88 109 255 197.074982 214.990891 7
-2.4381953982804818 -1.1276427511883362 3.8592811960036628 255 217 220 139.74408 175.575897 7
0.29987927374438994 0.11689065921729205 2.2077919415376157 197 196 255 433.564972 311.736786 7
0.85996442203078804 0.059223278010235282 1.6813489758286146 74 86 103 584.058594 300.987244 7
-0.073188595621392571 0.33782690522840064 0.96129024134754748 175 255 157 354.734985 419.232239 7
-1.7472828168967411 -0.35694398602023947 3.4010184071405654 255 66 84 179.159088 247.239532 7
0.0060713319097914775 0.26460045321287012 0.85035698842910779 117 255 83 390.566803 408.482697 7
