ply
format ascii 1.0
comment Written with hapPLY (https://github.com/nmwsharp/happly)
element vertex 179
property double x
property double y
property double z
property uchar red
property uchar green
property uchar blue
property float ix
property float iy
property uchar octave
end_header
-1.4379288863321666 -0.85211284024423095 2.8264411185857674 255 218 226 187 172 0
-1.0034931204397424 -1.5506883513854746 5.305635097510506 234 255 208 310 175 0
-0.29919590107058025 0.45092990082188755 0.81865991224143309 44 72 66 244 499 0
-1.6351670234076154 -1.533635474584901 2.8068798077360251 159 183 211 160 76 0
-1.5595646758387227 -0.046525165537552399 2.7613888638350139 247 255 245 166 283 0
0.13811793092784619 0.56385353211505951 3.0013388548352804 255 165 178 403 361 0
-0.38964236162617372 0.45251453754906662 0.8339690125332988 82 79 255 205.200012 494.400024 1
0.33955351075714835 -0.72887442741241015 4.8551159979242415 154 174 255 409.200012 229.200012 1
-0.91092494844799532 -0.54467579249551279 2.8341483752599177 224 226 255 261.600006 216.000015 1
-0.91302215554530752 -1.5100615117407457 5.1680898807740858 255 208 221 315.600006 175.200012 1
-0.77349603343655327 -0.31946964105336434 2.9909459266260452 228 228 255 285.600006 247.200012 1
-0.7485617917264169 -0.41911378793775844 2.9715312414194699 226 227 255 285.600006 232.800003 1
1.353874560679031 -0.83104779826855479 2.3947690317652444 228 235 255 601.200012 156 1
-1.3832221783667245 -0.82349212275951711 2.6960118404484716 255 218 225 187.200012 171.600006 1
-1.6248724969880706 -0.84041624013020355 2.7872705449052826 255 223 228 159.600006 171.600006 1
-1.6227602027568153 -0.92580674659896189 2.7774169114475353 255 210 220 159.600006 159.600006 1
-1.3798718513425854 -1.2722394024912087 2.6812336918214545 255 179 198 187.200012 105.600006 1
-1.6370024670265133 -1.3864918097327903 2.8086390308885569 174 194 216 160.800003 97.2000046 1
-1.3885509932871658 -1.0448727598202143 2.7026608141119342 199 212 227 188.400009 139.200012 1
-1.553679793998715 -1.0412513027810217 2.6865300987537686 255 209 218 159.600006 139.200012 1
-1.5991257326900801 -1.9287890314139906 3.1085202490913648 203 255 129 186 49.2000008 1
0.6214155110862315 -0.45580884208483352 4.4109223406328724 255 203 229 439.200012 247.200012 1
-1.3600829537088659 -0.35615518581892813 2.6556569671972521 255 242 243 187.200012 237.600006 1
-0.96041680278347252 0.32890217921390008 2.0530091870203897 230 230 255 205.200012 349.200012 1
-1.4559881930078964 -0.045222352995179793 2.7500956117582582 245 247 255 181.200012 283.200012 1
-1.5686737902896013 -0.013791913687451279 2.7160040829258927 247 255 245 162 285.600006 1
0.87979079780413949 -0.77447848531606756 3.6300239148089437 236 242 255 477.600006 207.600006 1
-1.4001840378982489 -0.99243568559599638 2.6999248878990856 217 229 255 185.76001 146.880005 2
-1.358561803738513 -1.1201098681511334 2.6556638806311135 255 193 208 187.200012 126.720001 2
0.090662369900185169 0.3229676479636075 1.011705422970699 140 153 173 416.160004 408.960022 2
-0.69502503246619307 0.15398839686150356 2.8452160363326318 161 255 154 290.880005 311.040009 2
-1.6096882395599108 -0.45524369680202237 2.7696288125381781 255 240 241 159.840012 226.080002 2
-1.3403970735860562 -1.1717519811275812 2.6227741291759785 255 187 204 187.200012 118.080002 2
-1.5753951348242357 -1.2879224047919586 2.7234147708139891 208 222 255 161.279999 106.560005 2
-1.3992954826138626 -1.3512080022228756 2.7267892341404973 255 176 195 187.200012 96.4800034 2
-1.52276758247806 -1.3213159422493248 2.6498884240084459 192 215 255 161.279999 96.4800034 2
-1.3135087076904588 0.35311633606633069 2.568535136579905 255 187 194 187.200012 342.720001 2
-1.3417685309464802 0.3150970155016074 2.3378849684859824 214 185 255 165.600006 339.840027 2
-1.4292381023833931 -0.21294377101390971 2.6953779751906342 243 244 246 180 257.76001 2
-1.3812516363025042 -0.73900697429930096 3.0936042724087995 112 138 255 213.12001 195.840012 2
-0.89589812100373134 -0.13527738178258147 2.7100648027873939 158 165 172 256.320007 267.839996 2
-0.70388918636589537 -0.39126831904494108 2.7920995972321365 226 227 255 285.120026 233.280014 2
-1.3154618751380744 -0.41698832212221471 3.0612934199960709 140 255 103 218.880005 236.160004 2
-1.6030116485236476 -0.91771120146475493 2.7520627768244559 255 210 220 159.840012 159.840012 2
-0.95226213896776546 -2.0936180377021349 5.7397099482843332 209 227 255 321.120026 148.320007 2
-1.6084764106017455 -1.4517172422521756 2.7677933824186902 187 212 255 161.279999 84.9600067 2
1.3924288638742357 -0.88439555853811957 2.4347232121266869 255 211 220 603.360046 148.320007 2
-0.45922083263841129 0.39699281537093922 0.90290812628222739 255 125 141 187.200012 459.360016 2
-0.65456497032350303 0.4789755306862023 0.97667710689187004 192 195 192 128.160004 475.200012 2
0.29535021508902659 0.48780205864218851 1.2539938619672992 150 172 255 473.76001 436.320007 2
1.4075802804454083 -0.75148332539897988 2.138624696790882 255 202 215 635.904053 153.792007 3
1.1027051498391967 -0.58794421261180951 3.9224401228286494 235 239 244 492.480042 229.82402 3
-0.76902899966811855 -0.18978080377277567 2.7516903261320653 224 226 226 276.480042 260.92804 3
-0.97893717157397164 -0.15016744627341699 2.8985196757281004 149 255 93 254.016022 266.11203 3
-0.70879771239875389 0.37152628724052045 2.8159742086400006 184 255 163 290.304016 338.688019 3
0.2264237243477798 0.4830110531071396 2.130711215739387 214 211 255 425.088043 376.704041 3
-0.4503387985483116 0.35831653592650914 0.92958715368405231 255 107 122 195.264023 435.456055 3
0.99745816920551822 0.32238677808834304 2.3637093689886592 132 255 113 546.048035 342.144043 3
0.70445601328705298 0.47415772960370428 1.601914240640288 255 89 123 551.232056 404.352051 3
-1.4012918546751423 -0.29942353881355455 2.7060409238095406 240 242 245 184.896011 245.376022 3
-1.5582858121639207 -0.30170235669259204 2.6968225781912101 245 255 241 162.432022 247.104019 3
-1.4604236404840534 0.42790708488758228 3.1805852780662116 225 255 227 210.816025 342.144043 3
0.60611086396069536 -0.46249412409157942 4.2972341743941618 224 226 255 437.184052 247.104019 3
0.63358286181774393 -0.52548966031079258 3.9363438447213959 241 245 255 445.824036 235.008026 3
0.29601881937940133 0.48853193079225132 1.2556935881317166 148 170 255 473.472046 435.456055 3
-1.3784323351233678 0.14563684234038618 3.5634542389834269 120 255 85 238.46402 304.128021 3
0.13765004236375167 0.32576249250785733 2.2308697830006774 90 107 255 409.536041 342.144043 3
-1.423845416271682 0.26207096031831767 2.8919164898710008 255 149 150 195.264023 321.40802 3
-0.63204594802248826 0.29896605407208698 2.7679211210653389 255 218 219 295.488037 328.320038 3
-1.26749424954797 -0.18460282482677251 2.4532899495636542 243 244 246 184.896011 260.92804 3
-1.052797730106025 -1.5794127614426994 5.2845048259092628 255 207 220 307.584015 174.528015 3
-1.3547839829545141 -0.6581766558956782 2.6360289657226748 231 234 239 184.896011 191.808014 3
-1.531252047045558 -0.80089624125794168 2.6408626641517654 222 228 235 160.70401 171.072021 3
-1.507123392407026 -0.12850530684810424 2.5703041932354607 247 255 245 158.976013 267.840027 3
-0.93081773234871434 -2.031591981764711 5.5770360492861544 255 189 209 319.680023 150.336014 3
-1.6084764106017455 -1.4517172422521756 2.7677933824186902 164 187 213 160.70401 86.4000092 3
-1.5268678069190793 -1.7250817327012908 2.7121107696046587 255 128 162 167.616013 44.9280052 3
-1.5424380366459882 -1.3305566072253936 2.6763016651872995 215 255 171 162.432022 96.7680054 3
-0.43086867975927179 0.37212711175707291 0.84460326418674381 80 255 129 186.624023 457.920044 3
-0.83052004692027515 0.36901775622313338 1.6019750189716642 74 104 124 188.35202 374.976044 3
0.7520939337278344 0.48648096625969239 1.6329269386507383 145 153 255 561.600037 406.080048 3
1.5427833443302006 -0.74880284596145241 2.1484801913114913 255 202 215 663.552063 153.792007 3
0.90225785080763421 -0.81008756984271368 3.855656395560831 234 237 242 476.92804 207.360016 3
-1.1221652328909775 -1.7499307420805328 4.6580308955093752 199 213 226 292.032013 143.424011 3
-1.0226531560773711 0.49974675390723655 1.4897570177819359 93 104 85 120.268814 414.720062 4
-1.3079807344259735 0.35119491009263526 2.5607697944763372 203 255 187 186.624023 342.144043 4
-0.49084560253605303 0.37635066208058454 2.4376871193263536 166 179 196 304.819244 346.29126 4
-0.6298628188262354 0.29540960601015043 2.7617576841761418 229 229 230 296.524841 329.702454 4
-1.327357058746649 0.14587648794595146 3.4139199170098662 90 109 129 236.390427 304.819244 4
-0.69116517417144463 -0.51253297329142466 2.6977510170637875 229 230 230 284.083252 215.654434 4
-0.89576344090867543 -1.4366868466835792 4.8532331311250685 255 207 220 315.187256 174.182419 4
-0.95636230633438402 -0.14795838263926842 2.8231491801402746 88 105 122 252.979233 265.420837 4
-1.6107799584159102 -0.46385973827941063 3.7321352237043559 255 102 120 219.801636 236.390427 4
-1.3389062187362897 -0.67178751748690524 2.7563262306692091 228 232 238 196.992035 194.918427 4
-1.418787611427649 -0.8319580103385924 2.734675058285267 234 255 217 186.624023 170.035217 4
-0.88488524779433719 -1.9231046199710411 5.3199916831239875 255 190 210 319.334442 151.372818 4
-1.5425690391241238 -1.7513020866096307 2.7453256884192427 255 128 162 167.961624 43.5456047 4
-1.5587189695844286 -1.6847533519672457 2.7027580879584625 163 202 255 161.740829 47.6928062 4
1.2102311682493003 -0.70531549965894313 2.3835896146558491 234 255 208 578.534485 178.32962 4
17.159016915795167 -18.449290178086933 32.104641095391315 208 255 130 590.976074 64.2816086 4
1.3415748309216025 -0.82989833218605136 2.3703787186395742 255 224 229 599.270508 157.593628 4
-0.31212446097581892 0.46580615766153199 1.0934268546087607 123 129 255 277.862427 449.971252 4
-0.41946314930208084 0.32827409921912842 0.85479896108749154 146 255 129 194.918427 437.529663 4
-1.5204308420573951 0.17657881105726067 2.0015734253378339 102 107 255 93.3120117 323.481659 4
-1.7844435967874959 0.39768671230688435 3.0962992076844662 255 231 215 163.814423 340.070435 4
0.55712601884983259 0.48335647703087631 1.0893278621963707 233 255 232 582.681702 462.412872 4
0.28032937284965143 0.45670068346704462 1.1671701149776457 166 255 130 474.854462 437.529663 4
0.42823221312497506 0.071953789308283611 0.83883123058822839 161 255 135 578.534485 321.408051 4
0.72832139908197469 0.50248443845736168 1.7162941076577249 116 123 255 549.504089 404.352051 4
0.97266881344286704 0.38881882305190363 2.2766630848377254 255 129 128 547.430481 352.512054 4
0.88457177008221666 -0.79641732759334372 3.7848796493258936 234 237 242 476.92807 207.360031 4
-1.2641019746910112 -1.9879086925241918 5.3031089661066328 200 213 226 292.377655 145.152023 4
-1.1172857277591488 0.46125247224276433 3.3669344002547499 147 151 156 256.296997 338.41156 5
-1.5647927732986497 0.37965404202981029 2.756873572104678 230 212 184 164.229141 338.41156 5
-1.8509652035253761 0.3171196619041653 3.1581589872919098 255 173 173 159.252502 330.946594 5
-1.3826948215324135 0.15447921603081474 3.5365515714607323 91 110 129 236.390427 303.575073 5
0.70571357147258662 0.46176728249159765 4.078999352024975 161 255 126 450.385986 333.434937 5
-0.88488524779433719 -1.9231046199710411 5.3199916831239875 189 209 227 320.993317 149.299225 5
-1.2641019746910112 -1.9879086925241918 5.3031089661066328 208 226 255 293.621796 144.322586 5
1.7934678198473484 -0.85490568807581213 2.4255972242041088 203 216 230 664.381531 154.275864 5
-0.32720876878292993 0.46226523576675027 0.85789337060679904 92 84 255 241.367081 495.175751 5
-0.42053935243243301 0.47187364868881154 0.89510657406249772 86 85 255 201.553955 490.199097 5
-0.81102206990102665 -0.56578995063811832 3.0443002412090925 229 255 228 286.15683 213.995544 5
0.63009519496467603 -0.52776420602317498 3.8472778303999764 246 255 240 450.385986 233.902115 5
0.55113388628585891 0.48320856224091557 0.94509415889337101 153 161 181 604.661865 480.245819 5
0.70265108442194801 0.48812987421993426 1.6762419315461008 113 120 255 549.918823 403.10791 5
0.54094547743574606 0.46636348136468986 1.03613229728392 231 255 230 582.266968 460.339264 5
0.30788356394237781 0.52312639615417356 1.3162529682142501 255 129 142 475.269196 437.944397 5
0.44124559465924151 0.070610605534366391 0.87120382908931093 255 66 94 579.778625 318.505005 5
-0.4503387985483116 0.35831653592650914 0.92958715368405231 169 182 169 196.577301 437.944397 5
-1.249569860596786 0.44845021805166274 1.5619217406132564 215 207 255 77.1379318 398.131256 5
15.982853880874046 -18.985597587157727 33.300416228066773 139 173 209 564.848694 72.161293 5
-1.377784934152118 0.14373971995248719 3.5036074134074511 255 96 114 235.892776 304.570435 6
-1.4137407348430946 -1.0253178976970876 2.6993781335864524 228 255 205 182.145065 143.327255 6
-1.0383847181024044 -1.5812349769250118 5.3195461729309645 255 206 219 307.556396 173.187103 6
-0.24754563270668117 -0.05014364339558558 6.3258651084159911 255 96 118 367.276093 286.65451 6
-1.2580371760704092 -0.16463684662886177 2.6292906883520062 245 246 255 197.074982 262.766632 6
-1.5312635890626005 -0.29257832789172422 2.6890263934267615 241 242 245 164.229156 247.836716 6
-0.68543453215493866 -0.51381397839202936 2.6762238026550724 255 229 230 283.668549 214.990891 6
-1.0904760878652415 -1.0911997135618736 4.1367534168771671 227 228 228 280.682556 185.131042 6
1.3265880986920506 -0.80995851377056471 2.3431874636593362 226 230 236 600.182922 155.271194 6
-0.4799000782984757 0.40613604276941417 1.8036769154744556 53 78 92 280.682556 373.248077 6
0.54814898518220245 0.49410357948768224 0.96108209868350203 255 150 159 603.168884 480.7435 6
-0.68377693436032105 -0.36971319578279765 2.7140392927358525 255 228 229 283.668549 238.878769 6
1.5805057545730103 -0.13419463084629241 4.7038048229554059 247 255 247 510.603363 274.710571 6
0.6066129760314789 -0.49138896271293109 3.4815574903899957 255 240 242 447.897675 235.892776 6
0.723993536248414 0.41617793069263337 1.2681378260939828 55 255 38 606.154846 412.065857 6
-0.40893945632430162 0.32972172433772035 0.85027680819888762 191 205 193 200.060959 438.939728 6
-0.20203005830087739 0.45525846662340169 1.1637513061255391 174 188 191 316.514374 438.939728 6
0.56487325433737845 0.52928253844850426 2.3115272061483907 130 144 167 480.7435 376.23407 6
-1.4303039910988753 0.36521262605780513 2.7917300697002911 225 225 255 185.131042 340.402252 6
-0.14630770998211995 0.31656619947844211 1.1201537381655218 107 111 109 328.458313 397.135956 6
-1.203839247853483 0.45608387195752059 3.6039887952196619 148 151 156 256.794678 337.41626 6
-0.43693501157697656 0.39869939218913986 2.4231951476208931 183 199 255 313.528381 346.374207 6
0.88457177008221666 -0.79641732759334372 3.7848796493258936 236 241 255 477.757538 206.032928 6
1.6471109204101699 -0.80287708768151667 2.3155986818218368 229 255 198 662.888611 154.076813 7
0.64154904810230962 -0.55875997681926792 4.0866862886180151 238 241 244 444.314514 236.48999 7
0.089771289837414336 -0.5180462909616127 4.6314856278683134 113 255 64 386.983612 243.656357 7
-0.33648013473375182 0.47110790587922741 1.0092924433499291 124 126 255 257.989075 465.813599 7
-1.1498571475215793 -0.76464603874484482 4.1746039115950326 255 229 230 283.07135 214.990891 7
-1.0904760878652415 -1.0911997135618736 4.1367534168771671 255 226 228 279.488159 182.742264 7
-0.86787384329136064 -0.69223199286098069 2.7594589499629558 227 228 255 261.572266 193.491806 7
0.42442786137177824 0.76024195313211052 2.1630546195059321 224 222 255 465.813599 422.81543 7
0.46262269392369948 0.39925973869765685 1.6762584150342899 161 255 130 494.479065 383.400421 7
0.63840726257099101 0.43828003716430075 1.4612357417779238 155 255 113 558.976318 404.899536 7
-1.0295419169959725 0.43598670982038823 1.5439081378467643 87 98 116 128.994537 397.733154 7
-1.1503457709198486 0.41618914213715097 1.4416687201284346 204 255 208 78.8299942 397.733154 7
-0.29477908523805874 0.43769852021802724 1.030915893129265 255 84 116 275.904999 447.897705 7
-0.33179940366197647 0.4834531401219293 2.5881749748563467 236 236 255 329.65271 358.318176 7
-0.38911670800738341 0.30341795971817054 1.9618100195428028 255 168 179 311.736786 343.985443 7
-0.010331272874834152 0.13431245986821555 4.9568800375208255 255 104 124 379.817261 297.404083 7
-0.94606739708671306 0.31219877118552125 3.8498330059390549 145 255 122 286.654541 315.319977 7
-1.2798880745467627 0.15364052239931272 3.2671769505954176 102 121 140 232.906799 304.570435 7
1.3368087275161171 -0.82519270319598315 2.3894265266269947 236 255 228 598.391357 154.076813 7
0.68990554584027786 -0.62938710672616338 3.812471649103049 255 239 241 455.064056 229.323624 7
1.2164152227862715 -0.71776536568424687 2.5186228324030537 208 222 235 576.892212 182.742264 7
-1.4411521777948026 -1.038210074691766 2.7265853411432404 255 206 216 179.159088 143.327271 7
-1.01430242406613 -2.0550233381020053 5.8197402418286028 229 255 194 318.903168 154.076813 7
-1.5312635890626005 -0.29257832789172422 2.6890263934267615 241 242 245 164.826355 247.239532 7
